-830.695108 -3375.654841 236.000000
-831.841958 -3374.016324 236.000000
-832.988807 -3372.377808 236.000000
-834.135657 -3370.739291 236.000000
-835.282506 -3369.100775 236.000000
-836.429356 -3367.462258 236.000000
-837.576205 -3365.823742 236.000000
-838.723055 -3364.185225 236.000000
-839.869904 -3362.546709 236.000000
-841.016754 -3360.908192 236.000000
-842.163603 -3359.269676 236.000000
-843.310453 -3357.631160 236.000000
-844.457302 -3355.992643 236.000000
-845.604152 -3354.354127 236.000000
-846.751001 -3352.715610 236.000000
-847.897851 -3351.077094 236.000000
-849.044701 -3349.438577 236.000000
-850.191550 -3347.800061 236.000000
-851.338400 -3346.161544 236.000000
-852.485249 -3344.523028 236.000000
-853.632099 -3342.884511 236.000000
-854.778948 -3341.245995 236.000000
-855.925798 -3339.607479 236.000000
-857.072647 -3337.968962 236.000000
-858.219497 -3336.330446 236.000000
-859.366346 -3334.691929 236.000000
-860.513196 -3333.053413 236.000000
-861.660045 -3331.414896 236.000000
-862.806895 -3329.776380 236.000000
-863.953744 -3328.137863 236.000000
-865.100594 -3326.499347 236.000000
-866.500000 -3324.500000 236.000000
-866.500000 -3324.500000 236.000000
-866.500000 -3322.500000 236.000000
-866.500000 -3320.500000 236.000000
-866.500000 -3318.500000 236.000000
-866.500000 -3316.500000 236.000000
-866.500000 -3314.500000 236.000000
-866.500000 -3312.500000 236.000000
-866.500000 -3310.500000 236.000000
-866.500000 -3308.500000 236.000000
-866.500000 -3306.500000 236.000000
-866.500000 -3304.500000 236.000000
-866.500000 -3302.500000 236.000000
-866.500000 -3300.500000 236.000000
-866.500000 -3298.500000 236.000000
-866.500000 -3296.500000 236.000000
-866.500000 -3294.500000 236.000000
-866.500000 -3292.500000 236.000000
-866.500000 -3290.500000 236.000000
-866.500000 -3288.500000 236.000000
-866.500000 -3286.500000 236.000000
-866.500000 -3284.500000 236.000000
-866.500000 -3282.500000 236.000000
-866.500000 -3280.500000 236.000000
-866.500000 -3278.500000 236.000000
-866.500000 -3276.500000 236.000000
-866.500000 -3274.500000 236.000000
-866.500000 -3272.500000 236.000000
-866.500000 -3270.500000 236.000000
-866.500000 -3268.500000 236.000000
-866.500000 -3266.500000 236.000000
-866.500000 -3264.500000 236.000000
-866.500000 -3262.500000 236.000000
-866.500000 -3260.500000 236.000000
-866.500000 -3258.500000 236.000000
-866.500000 -3256.500000 236.000000
-866.500000 -3254.500000 236.000000
-866.500000 -3252.500000 236.000000
-866.500000 -3250.500000 236.000000
-866.500000 -3248.500000 236.000000
-866.500000 -3246.500000 236.000000
-866.500000 -3244.500000 236.000000
-866.500000 -3242.500000 236.000000
-866.500000 -3240.500000 236.000000
-866.500000 -3238.500000 236.000000
-866.500000 -3236.500000 236.000000
-866.500000 -3234.500000 236.000000
-866.500000 -3232.500000 236.000000
-866.500000 -3230.500000 236.000000
-866.500000 -3228.500000 236.000000
-866.500000 -3226.500000 236.000000
-866.500000 -3224.500000 236.000000
-866.500000 -3222.500000 236.000000
-866.500000 -3220.500000 236.000000
-866.500000 -3218.500000 236.000000
-866.500000 -3216.500000 236.000000
-866.500000 -3214.500000 236.000000
-866.500000 -3212.500000 236.000000
-866.500000 -3210.500000 236.000000
-866.500000 -3208.500000 236.000000
-866.500000 -3206.500000 236.000000
-866.500000 -3204.500000 236.000000
-866.500000 -3202.500000 236.000000
-866.500000 -3200.500000 236.000000
-866.500000 -3198.500000 236.000000
-866.500000 -3196.500000 236.000000
-866.500000 -3194.500000 236.000000
-866.500000 -3192.500000 236.000000
-866.500000 -3190.500000 236.000000
-866.500000 -3188.500000 236.000000
-866.500000 -3186.500000 236.000000
-866.500000 -3184.500000 236.000000
-866.500000 -3182.500000 236.000000
-866.500000 -3180.500000 236.000000
-866.500000 -3178.500000 236.000000
-866.500000 -3176.500000 236.000000
-866.500000 -3174.500000 236.000000
-866.500000 -3172.500000 236.000000
-866.500000 -3170.500000 236.000000
-866.500000 -3168.500000 236.000000
-866.500000 -3166.500000 236.000000
-866.500000 -3164.500000 236.000000
-866.500000 -3162.500000 236.000000
-866.500000 -3160.500000 236.000000
-866.500000 -3158.500000 236.000000
-866.500000 -3156.500000 236.000000
-866.500000 -3154.500000 236.000000
-866.500000 -3152.500000 236.000000
-866.500000 -3150.500000 236.000000
-866.500000 -3148.500000 236.000000
-866.500000 -3146.500000 236.000000
-866.500000 -3144.500000 236.000000
-866.500000 -3142.500000 236.000000
-866.500000 -3140.500000 236.000000
-866.500000 -3138.500000 236.000000
-866.500000 -3136.500000 236.000000
-866.500000 -3134.500000 236.000000
-866.500000 -3132.500000 236.000000
-866.500000 -3130.500000 236.000000
-866.500000 -3128.500000 236.000000
-866.500000 -3126.500000 236.000000
-866.500000 -3124.500000 236.000000
-866.500000 -3122.500000 236.000000
-866.500000 -3120.500000 236.000000
-866.500000 -3118.500000 236.000000
-866.500000 -3116.500000 236.000000
-866.500000 -3114.500000 236.000000
-866.500000 -3112.500000 236.000000
-866.500000 -3110.500000 236.000000
-866.500000 -3108.500000 236.000000
-866.500000 -3106.500000 236.000000
-866.500000 -3104.500000 236.000000
-866.500000 -3102.500000 236.000000
-866.500000 -3100.500000 236.000000
-866.500000 -3098.500000 236.000000
-866.500000 -3096.500000 236.000000
-866.500000 -3094.500000 236.000000
-866.500000 -3092.500000 236.000000
-866.500000 -3090.500000 236.000000
-866.500000 -3088.500000 236.000000
-866.500000 -3086.500000 236.000000
-866.500000 -3084.500000 236.000000
-866.500000 -3082.500000 236.000000
-866.500000 -3080.500000 236.000000
-866.500000 -3078.500000 236.000000
-866.500000 -3076.500000 236.000000
-866.500000 -3074.500000 236.000000
-866.500000 -3072.500000 236.000000
-866.500000 -3068.500000 236.000000
-866.500000 -3068.500000 236.000000
-868.492233 -3068.375485 235.875485
-870.484466 -3068.250971 235.750971
-872.476699 -3068.126456 235.626456
-874.468932 -3068.001942 235.501942
-876.461165 -3067.877427 235.377427
-878.453398 -3067.752913 235.252913
-880.445631 -3067.628398 235.128398
-882.437864 -3067.503884 235.003884
-884.430097 -3067.379369 234.879369
-886.422330 -3067.254854 234.754854
-888.414563 -3067.130340 234.630340
-890.406796 -3067.005825 234.505825
-892.399029 -3066.881311 234.381311
-894.391262 -3066.756796 234.256796
-896.383495 -3066.632282 234.132282
-898.375728 -3066.507767 234.007767
-900.367961 -3066.383252 233.883252
-902.360194 -3066.258738 233.758738
-904.352427 -3066.134223 233.634223
-906.344660 -3066.009709 233.509709
-908.336893 -3065.885194 233.385194
-910.329126 -3065.760680 233.260680
-912.321359 -3065.636165 233.136165
-914.313592 -3065.511651 233.011651
-916.305825 -3065.387136 232.887136
-918.298057 -3065.262621 232.762621
-920.290290 -3065.138107 232.638107
-922.282523 -3065.013592 232.513592
-924.274756 -3064.889078 232.389078
-926.266989 -3064.764563 232.264563
-928.259222 -3064.640049 232.140049
-930.251455 -3064.515534 232.015534
-932.243688 -3064.391019 231.891019
-934.235921 -3064.266505 231.766505
-936.228154 -3064.141990 231.641990
-938.220387 -3064.017476 231.517476
-940.212620 -3063.892961 231.392961
-942.204853 -3063.768447 231.268447
-944.197086 -3063.643932 231.143932
-946.189319 -3063.519418 231.019418
-948.181552 -3063.394903 230.894903
-950.173785 -3063.270388 230.770388
-952.166018 -3063.145874 230.645874
-954.158251 -3063.021359 230.521359
-956.150484 -3062.896845 230.396845
-958.142717 -3062.772330 230.272330
-960.134950 -3062.647816 230.147816
-962.127183 -3062.523301 230.023301
-964.119416 -3062.398786 229.898786
-966.111649 -3062.274272 229.774272
-968.103882 -3062.149757 229.649757
-970.096115 -3062.025243 229.525243
-972.088348 -3061.900728 229.400728
-974.080581 -3061.776214 229.276214
-976.072814 -3061.651699 229.151699
-978.065047 -3061.527185 229.027185
-980.057280 -3061.402670 228.902670
-982.049513 -3061.278155 228.778155
-984.041746 -3061.153641 228.653641
-986.033979 -3061.029126 228.529126
-988.026212 -3060.904612 228.404612
-990.018445 -3060.780097 228.280097
-992.010678 -3060.655583 228.155583
-994.002911 -3060.531068 228.031068
-995.995144 -3060.406554 227.906554
-997.987377 -3060.282039 227.782039
-999.979610 -3060.157524 227.657524
-1001.971843 -3060.033010 227.533010
-1003.964076 -3059.908495 227.408495
-1005.956309 -3059.783981 227.283981
-1007.948542 -3059.659466 227.159466
-1009.940775 -3059.534952 227.034952
-1011.933008 -3059.410437 226.910437
-1013.925241 -3059.285922 226.785922
-1015.917474 -3059.161408 226.661408
-1017.909707 -3059.036893 226.536893
-1019.901939 -3058.912379 226.412379
-1021.894172 -3058.787864 226.287864
-1023.886405 -3058.663350 226.163350
-1025.878638 -3058.538835 226.038835
-1027.870871 -3058.414321 225.914321
-1029.863104 -3058.289806 225.789806
-1031.855337 -3058.165291 225.665291
-1033.847570 -3058.040777 225.540777
-1035.839803 -3057.916262 225.416262
-1037.832036 -3057.791748 225.291748
-1039.824269 -3057.667233 225.167233
-1041.816502 -3057.542719 225.042719
-1043.808735 -3057.418204 224.918204
-1045.800968 -3057.293689 224.793689
-1047.793201 -3057.169175 224.669175
-1049.785434 -3057.044660 224.544660
-1051.777667 -3056.920146 224.420146
-1053.769900 -3056.795631 224.295631
-1055.762133 -3056.671117 224.171117
-1057.754366 -3056.546602 224.046602
-1059.746599 -3056.422088 223.922088
-1061.738832 -3056.297573 223.797573
-1063.731065 -3056.173058 223.673058
-1065.723298 -3056.048544 223.548544
-1067.715531 -3055.924029 223.424029
-1069.707764 -3055.799515 223.299515
-1071.699997 -3055.675000 223.175000
-1073.692230 -3055.550486 223.050486
-1075.684463 -3055.425971 222.925971
-1077.676696 -3055.301457 222.801457
-1079.668929 -3055.176942 222.676942
-1081.661162 -3055.052427 222.552427
-1083.653395 -3054.927913 222.427913
-1085.645628 -3054.803398 222.303398
-1087.637861 -3054.678884 222.178884
-1089.630094 -3054.554369 222.054369
-1091.622327 -3054.429855 221.929855
-1093.614560 -3054.305340 221.805340
-1095.606793 -3054.180825 221.680825
-1097.599026 -3054.056311 221.556311
-1099.591259 -3053.931796 221.431796
-1101.583492 -3053.807282 221.307282
-1103.575725 -3053.682767 221.182767
-1105.567958 -3053.558253 221.058253
-1107.560191 -3053.433738 220.933738
-1109.552424 -3053.309224 220.809224
-1111.544657 -3053.184709 220.684709
-1113.536890 -3053.060194 220.560194
-1115.529123 -3052.935680 220.435680
-1117.521356 -3052.811165 220.311165
-1119.513589 -3052.686651 220.186651
-1122.500000 -3052.500000 220.000000
-1122.500000 -3052.500000 220.000000
-1124.499825 -3052.526455 220.000000
-1126.499650 -3052.552910 220.000000
-1128.499475 -3052.579365 220.000000
-1130.499300 -3052.605820 220.000000
-1132.499125 -3052.632274 220.000000
-1134.498950 -3052.658729 220.000000
-1136.498775 -3052.685184 220.000000
-1138.498600 -3052.711639 220.000000
-1140.498425 -3052.738094 220.000000
-1142.498250 -3052.764549 220.000000
-1144.498075 -3052.791004 220.000000
-1146.497900 -3052.817459 220.000000
-1148.497725 -3052.843914 220.000000
-1150.497550 -3052.870369 220.000000
-1152.497375 -3052.896823 220.000000
-1154.497200 -3052.923278 220.000000
-1156.497025 -3052.949733 220.000000
-1158.496850 -3052.976188 220.000000
-1160.496676 -3053.002643 220.000000
-1162.496501 -3053.029098 220.000000
-1164.496326 -3053.055553 220.000000
-1166.496151 -3053.082008 220.000000
-1168.495976 -3053.108463 220.000000
-1170.495801 -3053.134918 220.000000
-1172.495626 -3053.161372 220.000000
-1174.495451 -3053.187827 220.000000
-1176.495276 -3053.214282 220.000000
-1178.495101 -3053.240737 220.000000
-1180.494926 -3053.267192 220.000000
-1182.494751 -3053.293647 220.000000
-1184.494576 -3053.320102 220.000000
-1186.494401 -3053.346557 220.000000
-1188.494226 -3053.373012 220.000000
-1190.494051 -3053.399467 220.000000
-1192.493876 -3053.425921 220.000000
-1194.493701 -3053.452376 220.000000
-1196.493526 -3053.478831 220.000000
-1198.493351 -3053.505286 220.000000
-1200.493176 -3053.531741 220.000000
-1202.493001 -3053.558196 220.000000
-1204.492826 -3053.584651 220.000000
-1206.492651 -3053.611106 220.000000
-1208.492476 -3053.637561 220.000000
-1210.492301 -3053.664016 220.000000
-1212.492126 -3053.690470 220.000000
-1214.491951 -3053.716925 220.000000
-1216.491776 -3053.743380 220.000000
-1218.491601 -3053.769835 220.000000
-1220.491426 -3053.796290 220.000000
-1222.491251 -3053.822745 220.000000
-1224.491076 -3053.849200 220.000000
-1226.490901 -3053.875655 220.000000
-1228.490726 -3053.902110 220.000000
-1230.490551 -3053.928565 220.000000
-1232.490376 -3053.955019 220.000000
-1234.490202 -3053.981474 220.000000
-1236.490027 -3054.007929 220.000000
-1238.489852 -3054.034384 220.000000
-1240.489677 -3054.060839 220.000000
-1242.489502 -3054.087294 220.000000
-1244.489327 -3054.113749 220.000000
-1246.489152 -3054.140204 220.000000
-1248.488977 -3054.166659 220.000000
-1250.488802 -3054.193114 220.000000
-1252.488627 -3054.219568 220.000000
-1254.488452 -3054.246023 220.000000
-1256.488277 -3054.272478 220.000000
-1258.488102 -3054.298933 220.000000
-1260.487927 -3054.325388 220.000000
-1262.487752 -3054.351843 220.000000
-1264.487577 -3054.378298 220.000000
-1266.487402 -3054.404753 220.000000
-1268.487227 -3054.431208 220.000000
-1270.487052 -3054.457663 220.000000
-1272.486877 -3054.484117 220.000000
-1274.486702 -3054.510572 220.000000
-1276.486527 -3054.537027 220.000000
-1278.486352 -3054.563482 220.000000
-1280.486177 -3054.589937 220.000000
-1282.486002 -3054.616392 220.000000
-1284.485827 -3054.642847 220.000000
-1286.485652 -3054.669302 220.000000
-1288.485477 -3054.695757 220.000000
-1290.485302 -3054.722212 220.000000
-1292.485127 -3054.748666 220.000000
-1294.484952 -3054.775121 220.000000
-1296.484777 -3054.801576 220.000000
-1298.484602 -3054.828031 220.000000
-1300.484427 -3054.854486 220.000000
-1302.484252 -3054.880941 220.000000
-1304.484077 -3054.907396 220.000000
-1306.483902 -3054.933851 220.000000
-1308.483728 -3054.960306 220.000000
-1310.483553 -3054.986761 220.000000
-1312.483378 -3055.013215 220.000000
-1314.483203 -3055.039670 220.000000
-1316.483028 -3055.066125 220.000000
-1318.482853 -3055.092580 220.000000
-1320.482678 -3055.119035 220.000000
-1322.482503 -3055.145490 220.000000
-1324.482328 -3055.171945 220.000000
-1326.482153 -3055.198400 220.000000
-1328.481978 -3055.224855 220.000000
-1330.481803 -3055.251310 220.000000
-1332.481628 -3055.277764 220.000000
-1334.481453 -3055.304219 220.000000
-1336.481278 -3055.330674 220.000000
-1338.481103 -3055.357129 220.000000
-1340.480928 -3055.383584 220.000000
-1342.480753 -3055.410039 220.000000
-1344.480578 -3055.436494 220.000000
-1346.480403 -3055.462949 220.000000
-1348.480228 -3055.489404 220.000000
-1350.480053 -3055.515858 220.000000
-1352.479878 -3055.542313 220.000000
-1354.479703 -3055.568768 220.000000
-1356.479528 -3055.595223 220.000000
-1358.479353 -3055.621678 220.000000
-1360.479178 -3055.648133 220.000000
-1362.479003 -3055.674588 220.000000
-1364.478828 -3055.701043 220.000000
-1366.478653 -3055.727498 220.000000
-1368.478478 -3055.753953 220.000000
-1370.478303 -3055.780407 220.000000
-1372.478128 -3055.806862 220.000000
-1374.477953 -3055.833317 220.000000
-1376.477778 -3055.859772 220.000000
-1378.477603 -3055.886227 220.000000
-1380.477428 -3055.912682 220.000000
-1382.477254 -3055.939137 220.000000
-1384.477079 -3055.965592 220.000000
-1386.476904 -3055.992047 220.000000
-1388.476729 -3056.018502 220.000000
-1390.476554 -3056.044956 220.000000
-1392.476379 -3056.071411 220.000000
-1394.476204 -3056.097866 220.000000
-1396.476029 -3056.124321 220.000000
-1398.475854 -3056.150776 220.000000
-1400.475679 -3056.177231 220.000000
-1402.475504 -3056.203686 220.000000
-1404.475329 -3056.230141 220.000000
-1406.475154 -3056.256596 220.000000
-1408.474979 -3056.283051 220.000000
-1410.474804 -3056.309505 220.000000
-1412.474629 -3056.335960 220.000000
-1414.474454 -3056.362415 220.000000
-1416.474279 -3056.388870 220.000000
-1418.474104 -3056.415325 220.000000
-1420.473929 -3056.441780 220.000000
-1422.473754 -3056.468235 220.000000
-1424.473579 -3056.494690 220.000000
-1426.473404 -3056.521145 220.000000
-1428.473229 -3056.547600 220.000000
-1430.473054 -3056.574054 220.000000
-1432.472879 -3056.600509 220.000000
-1434.472704 -3056.626964 220.000000
-1436.472529 -3056.653419 220.000000
-1438.472354 -3056.679874 220.000000
-1440.472179 -3056.706329 220.000000
-1442.472004 -3056.732784 220.000000
-1444.471829 -3056.759239 220.000000
-1446.471654 -3056.785694 220.000000
-1448.471479 -3056.812149 220.000000
-1450.471304 -3056.838603 220.000000
-1452.471129 -3056.865058 220.000000
-1454.470954 -3056.891513 220.000000
-1456.470779 -3056.917968 220.000000
-1458.470605 -3056.944423 220.000000
-1460.470430 -3056.970878 220.000000
-1462.470255 -3056.997333 220.000000
-1464.470080 -3057.023788 220.000000
-1466.469905 -3057.050243 220.000000
-1468.469730 -3057.076698 220.000000
-1470.469555 -3057.103152 220.000000
-1472.469380 -3057.129607 220.000000
-1474.469205 -3057.156062 220.000000
-1476.469030 -3057.182517 220.000000
-1478.468855 -3057.208972 220.000000
-1480.468680 -3057.235427 220.000000
-1482.468505 -3057.261882 220.000000
-1484.468330 -3057.288337 220.000000
-1486.468155 -3057.314792 220.000000
-1488.467980 -3057.341247 220.000000
-1490.467805 -3057.367701 220.000000
-1492.467630 -3057.394156 220.000000
-1494.467455 -3057.420611 220.000000
-1496.467280 -3057.447066 220.000000
-1498.467105 -3057.473521 220.000000
-1500.466930 -3057.499976 220.000000
-1502.466755 -3057.526431 220.000000
-1504.466580 -3057.552886 220.000000
-1506.466405 -3057.579341 220.000000
-1508.466230 -3057.605796 220.000000
-1510.466055 -3057.632250 220.000000
-1512.465880 -3057.658705 220.000000
-1514.465705 -3057.685160 220.000000
-1516.465530 -3057.711615 220.000000
-1518.465355 -3057.738070 220.000000
-1520.465180 -3057.764525 220.000000
-1522.465005 -3057.790980 220.000000
-1524.464830 -3057.817435 220.000000
-1526.464655 -3057.843890 220.000000
-1528.464480 -3057.870345 220.000000
-1530.464305 -3057.896799 220.000000
-1532.464131 -3057.923254 220.000000
-1534.463956 -3057.949709 220.000000
-1536.463781 -3057.976164 220.000000
-1538.463606 -3058.002619 220.000000
-1540.463431 -3058.029074 220.000000
-1542.463256 -3058.055529 220.000000
-1544.463081 -3058.081984 220.000000
-1546.462906 -3058.108439 220.000000
-1548.462731 -3058.134894 220.000000
-1550.462556 -3058.161348 220.000000
-1552.462381 -3058.187803 220.000000
-1554.462206 -3058.214258 220.000000
-1556.462031 -3058.240713 220.000000
-1558.461856 -3058.267168 220.000000
-1560.461681 -3058.293623 220.000000
-1562.461506 -3058.320078 220.000000
-1564.461331 -3058.346533 220.000000
-1566.461156 -3058.372988 220.000000
-1568.460981 -3058.399442 220.000000
-1570.460806 -3058.425897 220.000000
-1572.460631 -3058.452352 220.000000
-1574.460456 -3058.478807 220.000000
-1576.460281 -3058.505262 220.000000
-1578.460106 -3058.531717 220.000000
-1580.459931 -3058.558172 220.000000
-1582.459756 -3058.584627 220.000000
-1584.459581 -3058.611082 220.000000
-1586.459406 -3058.637537 220.000000
-1588.459231 -3058.663991 220.000000
-1590.459056 -3058.690446 220.000000
-1592.458881 -3058.716901 220.000000
-1594.458706 -3058.743356 220.000000
-1596.458531 -3058.769811 220.000000
-1598.458356 -3058.796266 220.000000
-1600.458181 -3058.822721 220.000000
-1602.458006 -3058.849176 220.000000
-1604.457831 -3058.875631 220.000000
-1606.457657 -3058.902086 220.000000
-1608.457482 -3058.928540 220.000000
-1610.457307 -3058.954995 220.000000
-1612.457132 -3058.981450 220.000000
-1614.456957 -3059.007905 220.000000
-1616.456782 -3059.034360 220.000000
-1618.456607 -3059.060815 220.000000
-1620.456432 -3059.087270 220.000000
-1622.456257 -3059.113725 220.000000
-1624.456082 -3059.140180 220.000000
-1626.455907 -3059.166635 220.000000
-1628.455732 -3059.193089 220.000000
-1630.455557 -3059.219544 220.000000
-1632.455382 -3059.245999 220.000000
-1634.455207 -3059.272454 220.000000
-1636.455032 -3059.298909 220.000000
-1638.454857 -3059.325364 220.000000
-1640.454682 -3059.351819 220.000000
-1642.454507 -3059.378274 220.000000
-1644.454332 -3059.404729 220.000000
-1646.454157 -3059.431184 220.000000
-1648.453982 -3059.457638 220.000000
-1650.453807 -3059.484093 220.000000
-1652.453632 -3059.510548 220.000000
-1654.453457 -3059.537003 220.000000
-1656.453282 -3059.563458 220.000000
-1658.453107 -3059.589913 220.000000
-1660.452932 -3059.616368 220.000000
-1662.452757 -3059.642823 220.000000
-1664.452582 -3059.669278 220.000000
-1666.452407 -3059.695733 220.000000
-1668.452232 -3059.722187 220.000000
-1670.452057 -3059.748642 220.000000
-1672.451882 -3059.775097 220.000000
-1674.451707 -3059.801552 220.000000
-1676.451532 -3059.828007 220.000000
-1678.451357 -3059.854462 220.000000
-1680.451183 -3059.880917 220.000000
-1682.451008 -3059.907372 220.000000
-1684.450833 -3059.933827 220.000000
-1686.450658 -3059.960282 220.000000
-1688.450483 -3059.986736 220.000000
-1690.450308 -3060.013191 220.000000
-1692.450133 -3060.039646 220.000000
-1694.449958 -3060.066101 220.000000
-1696.449783 -3060.092556 220.000000
-1698.449608 -3060.119011 220.000000
-1700.449433 -3060.145466 220.000000
-1702.449258 -3060.171921 220.000000
-1704.449083 -3060.198376 220.000000
-1706.448908 -3060.224831 220.000000
-1708.448733 -3060.251285 220.000000
-1710.448558 -3060.277740 220.000000
-1712.448383 -3060.304195 220.000000
-1714.448208 -3060.330650 220.000000
-1716.448033 -3060.357105 220.000000
-1718.447858 -3060.383560 220.000000
-1720.447683 -3060.410015 220.000000
-1722.447508 -3060.436470 220.000000
-1724.447333 -3060.462925 220.000000
-1726.447158 -3060.489380 220.000000
-1728.446983 -3060.515834 220.000000
-1730.446808 -3060.542289 220.000000
-1732.446633 -3060.568744 220.000000
-1734.446458 -3060.595199 220.000000
-1736.446283 -3060.621654 220.000000
-1738.446108 -3060.648109 220.000000
-1740.445933 -3060.674564 220.000000
-1742.445758 -3060.701019 220.000000
-1744.445583 -3060.727474 220.000000
-1746.445408 -3060.753929 220.000000
-1748.445233 -3060.780383 220.000000
-1750.445058 -3060.806838 220.000000
-1752.444883 -3060.833293 220.000000
-1754.444709 -3060.859748 220.000000
-1756.444534 -3060.886203 220.000000
-1758.444359 -3060.912658 220.000000
-1760.444184 -3060.939113 220.000000
-1762.444009 -3060.965568 220.000000
-1764.443834 -3060.992023 220.000000
-1766.443659 -3061.018478 220.000000
-1768.443484 -3061.044932 220.000000
-1770.443309 -3061.071387 220.000000
-1772.443134 -3061.097842 220.000000
-1774.442959 -3061.124297 220.000000
-1776.442784 -3061.150752 220.000000
-1778.442609 -3061.177207 220.000000
-1780.442434 -3061.203662 220.000000
-1782.442259 -3061.230117 220.000000
-1784.442084 -3061.256572 220.000000
-1786.441909 -3061.283026 220.000000
-1788.441734 -3061.309481 220.000000
-1790.441559 -3061.335936 220.000000
-1792.441384 -3061.362391 220.000000
-1794.441209 -3061.388846 220.000000
-1796.441034 -3061.415301 220.000000
-1798.440859 -3061.441756 220.000000
-1800.440684 -3061.468211 220.000000
-1802.440509 -3061.494666 220.000000
-1804.440334 -3061.521121 220.000000
-1806.440159 -3061.547575 220.000000
-1808.439984 -3061.574030 220.000000
-1810.439809 -3061.600485 220.000000
-1812.439634 -3061.626940 220.000000
-1814.439459 -3061.653395 220.000000
-1816.439284 -3061.679850 220.000000
-1818.439109 -3061.706305 220.000000
-1820.438934 -3061.732760 220.000000
-1822.438759 -3061.759215 220.000000
-1824.438584 -3061.785670 220.000000
-1826.438409 -3061.812124 220.000000
-1828.438235 -3061.838579 220.000000
-1830.438060 -3061.865034 220.000000
-1832.437885 -3061.891489 220.000000
-1834.437710 -3061.917944 220.000000
-1836.437535 -3061.944399 220.000000
-1838.437360 -3061.970854 220.000000
-1840.437185 -3061.997309 220.000000
-1842.437010 -3062.023764 220.000000
-1844.436835 -3062.050219 220.000000
-1846.436660 -3062.076673 220.000000
-1848.436485 -3062.103128 220.000000
-1850.436310 -3062.129583 220.000000
-1852.436135 -3062.156038 220.000000
-1854.435960 -3062.182493 220.000000
-1856.435785 -3062.208948 220.000000
-1858.435610 -3062.235403 220.000000
-1860.435435 -3062.261858 220.000000
-1862.435260 -3062.288313 220.000000
-1864.435085 -3062.314768 220.000000
-1866.434910 -3062.341222 220.000000
-1868.434735 -3062.367677 220.000000
-1870.434560 -3062.394132 220.000000
-1872.434385 -3062.420587 220.000000
-1874.434210 -3062.447042 220.000000
-1876.434035 -3062.473497 220.000000
-1878.433860 -3062.499952 220.000000
-1880.433685 -3062.526407 220.000000
-1882.433510 -3062.552862 220.000000
-1884.433335 -3062.579317 220.000000
-1886.433160 -3062.605771 220.000000
-1888.432985 -3062.632226 220.000000
-1890.432810 -3062.658681 220.000000
-1892.432635 -3062.685136 220.000000
-1894.432460 -3062.711591 220.000000
-1896.432285 -3062.738046 220.000000
-1898.432110 -3062.764501 220.000000
-1900.431935 -3062.790956 220.000000
-1902.431761 -3062.817411 220.000000
-1904.431586 -3062.843866 220.000000
-1906.431411 -3062.870320 220.000000
-1908.431236 -3062.896775 220.000000
-1910.431061 -3062.923230 220.000000
-1912.430886 -3062.949685 220.000000
-1914.430711 -3062.976140 220.000000
-1916.430536 -3063.002595 220.000000
-1918.430361 -3063.029050 220.000000
-1920.430186 -3063.055505 220.000000
-1922.430011 -3063.081960 220.000000
-1924.429836 -3063.108415 220.000000
-1926.429661 -3063.134869 220.000000
-1928.429486 -3063.161324 220.000000
-1930.429311 -3063.187779 220.000000
-1932.429136 -3063.214234 220.000000
-1934.428961 -3063.240689 220.000000
-1936.428786 -3063.267144 220.000000
-1938.428611 -3063.293599 220.000000
-1940.428436 -3063.320054 220.000000
-1942.428261 -3063.346509 220.000000
-1944.428086 -3063.372964 220.000000
-1946.427911 -3063.399418 220.000000
-1948.427736 -3063.425873 220.000000
-1950.427561 -3063.452328 220.000000
-1952.427386 -3063.478783 220.000000
-1954.427211 -3063.505238 220.000000
-1956.427036 -3063.531693 220.000000
-1958.426861 -3063.558148 220.000000
-1960.426686 -3063.584603 220.000000
-1962.426511 -3063.611058 220.000000
-1964.426336 -3063.637513 220.000000
-1966.426161 -3063.663967 220.000000
-1968.425986 -3063.690422 220.000000
-1970.425811 -3063.716877 220.000000
-1972.425636 -3063.743332 220.000000
-1974.425461 -3063.769787 220.000000
-1976.425286 -3063.796242 220.000000
-1978.425112 -3063.822697 220.000000
-1980.424937 -3063.849152 220.000000
-1982.424762 -3063.875607 220.000000
-1984.424587 -3063.902062 220.000000
-1986.424412 -3063.928516 220.000000
-1988.424237 -3063.954971 220.000000
-1990.424062 -3063.981426 220.000000
-1992.423887 -3064.007881 220.000000
-1994.423712 -3064.034336 220.000000
-1996.423537 -3064.060791 220.000000
-1998.423362 -3064.087246 220.000000
-2000.423187 -3064.113701 220.000000
-2002.423012 -3064.140156 220.000000
-2004.422837 -3064.166610 220.000000
-2006.422662 -3064.193065 220.000000
-2008.422487 -3064.219520 220.000000
-2010.422312 -3064.245975 220.000000
-2012.422137 -3064.272430 220.000000
-2014.421962 -3064.298885 220.000000
-2016.421787 -3064.325340 220.000000
-2018.421612 -3064.351795 220.000000
-2020.421437 -3064.378250 220.000000
-2022.421262 -3064.404705 220.000000
-2024.421087 -3064.431159 220.000000
-2026.420912 -3064.457614 220.000000
-2028.420737 -3064.484069 220.000000
-2030.420562 -3064.510524 220.000000
-2032.420387 -3064.536979 220.000000
-2034.420212 -3064.563434 220.000000
-2036.420037 -3064.589889 220.000000
-2038.419862 -3064.616344 220.000000
-2040.419687 -3064.642799 220.000000
-2042.419512 -3064.669254 220.000000
-2044.419337 -3064.695708 220.000000
-2046.419162 -3064.722163 220.000000
-2048.418987 -3064.748618 220.000000
-2050.418812 -3064.775073 220.000000
-2052.418638 -3064.801528 220.000000
-2054.418463 -3064.827983 220.000000
-2056.418288 -3064.854438 220.000000
-2058.418113 -3064.880893 220.000000
-2060.417938 -3064.907348 220.000000
-2062.417763 -3064.933803 220.000000
-2064.417588 -3064.960257 220.000000
-2066.417413 -3064.986712 220.000000
-2068.417238 -3065.013167 220.000000
-2070.417063 -3065.039622 220.000000
-2072.416888 -3065.066077 220.000000
-2074.416713 -3065.092532 220.000000
-2076.416538 -3065.118987 220.000000
-2078.416363 -3065.145442 220.000000
-2080.416188 -3065.171897 220.000000
-2082.416013 -3065.198352 220.000000
-2084.415838 -3065.224806 220.000000
-2086.415663 -3065.251261 220.000000
-2088.415488 -3065.277716 220.000000
-2090.415313 -3065.304171 220.000000
-2092.415138 -3065.330626 220.000000
-2094.414963 -3065.357081 220.000000
-2096.414788 -3065.383536 220.000000
-2098.414613 -3065.409991 220.000000
-2100.414438 -3065.436446 220.000000
-2102.414263 -3065.462901 220.000000
-2104.414088 -3065.489355 220.000000
-2106.413913 -3065.515810 220.000000
-2108.413738 -3065.542265 220.000000
-2110.413563 -3065.568720 220.000000
-2112.413388 -3065.595175 220.000000
-2114.413213 -3065.621630 220.000000
-2116.413038 -3065.648085 220.000000
-2118.412863 -3065.674540 220.000000
-2120.412688 -3065.700995 220.000000
-2122.412513 -3065.727450 220.000000
-2124.412338 -3065.753904 220.000000
-2126.412164 -3065.780359 220.000000
-2128.411989 -3065.806814 220.000000
-2130.411814 -3065.833269 220.000000
-2132.411639 -3065.859724 220.000000
-2134.411464 -3065.886179 220.000000
-2136.411289 -3065.912634 220.000000
-2138.411114 -3065.939089 220.000000
-2140.410939 -3065.965544 220.000000
-2142.410764 -3065.991999 220.000000
-2144.410589 -3066.018453 220.000000
-2146.410414 -3066.044908 220.000000
-2148.410239 -3066.071363 220.000000
-2150.410064 -3066.097818 220.000000
-2152.409889 -3066.124273 220.000000
-2154.409714 -3066.150728 220.000000
-2156.409539 -3066.177183 220.000000
-2158.409364 -3066.203638 220.000000
-2160.409189 -3066.230093 220.000000
-2162.409014 -3066.256548 220.000000
-2164.408839 -3066.283002 220.000000
-2166.408664 -3066.309457 220.000000
-2168.408489 -3066.335912 220.000000
-2170.408314 -3066.362367 220.000000
-2172.408139 -3066.388822 220.000000
-2174.407964 -3066.415277 220.000000
-2176.407789 -3066.441732 220.000000
-2178.407614 -3066.468187 220.000000
-2180.407439 -3066.494642 220.000000
-2182.407264 -3066.521097 220.000000
-2184.407089 -3066.547551 220.000000
-2186.406914 -3066.574006 220.000000
-2188.406739 -3066.600461 220.000000
-2190.406564 -3066.626916 220.000000
-2192.406389 -3066.653371 220.000000
-2194.406214 -3066.679826 220.000000
-2196.406039 -3066.706281 220.000000
-2198.405864 -3066.732736 220.000000
-2200.405690 -3066.759191 220.000000
-2202.405515 -3066.785646 220.000000
-2204.405340 -3066.812100 220.000000
-2206.405165 -3066.838555 220.000000
-2208.404990 -3066.865010 220.000000
-2210.404815 -3066.891465 220.000000
-2212.404640 -3066.917920 220.000000
-2214.404465 -3066.944375 220.000000
-2216.404290 -3066.970830 220.000000
-2218.404115 -3066.997285 220.000000
-2220.403940 -3067.023740 220.000000
-2222.403765 -3067.050194 220.000000
-2224.403590 -3067.076649 220.000000
-2226.403415 -3067.103104 220.000000
-2228.403240 -3067.129559 220.000000
-2230.403065 -3067.156014 220.000000
-2232.402890 -3067.182469 220.000000
-2234.402715 -3067.208924 220.000000
-2236.402540 -3067.235379 220.000000
-2238.402365 -3067.261834 220.000000
-2240.402190 -3067.288289 220.000000
-2242.402015 -3067.314743 220.000000
-2244.401840 -3067.341198 220.000000
-2246.401665 -3067.367653 220.000000
-2248.401490 -3067.394108 220.000000
-2250.401315 -3067.420563 220.000000
-2252.401140 -3067.447018 220.000000
-2254.400965 -3067.473473 220.000000
-2256.400790 -3067.499928 220.000000
-2258.400615 -3067.526383 220.000000
-2260.400440 -3067.552838 220.000000
-2262.400265 -3067.579292 220.000000
-2264.400090 -3067.605747 220.000000
-2266.399915 -3067.632202 220.000000
-2268.399740 -3067.658657 220.000000
-2270.399565 -3067.685112 220.000000
-2272.399390 -3067.711567 220.000000
-2274.399216 -3067.738022 220.000000
-2276.399041 -3067.764477 220.000000
-2278.398866 -3067.790932 220.000000
-2280.398691 -3067.817387 220.000000
-2282.398516 -3067.843841 220.000000
-2284.398341 -3067.870296 220.000000
-2286.398166 -3067.896751 220.000000
-2288.397991 -3067.923206 220.000000
-2290.397816 -3067.949661 220.000000
-2292.397641 -3067.976116 220.000000
-2294.397466 -3068.002571 220.000000
-2296.397291 -3068.029026 220.000000
-2298.397116 -3068.055481 220.000000
-2300.396941 -3068.081936 220.000000
-2302.396766 -3068.108390 220.000000
-2304.396591 -3068.134845 220.000000
-2306.396416 -3068.161300 220.000000
-2308.396241 -3068.187755 220.000000
-2310.396066 -3068.214210 220.000000
-2312.395891 -3068.240665 220.000000
-2314.395716 -3068.267120 220.000000
-2316.395541 -3068.293575 220.000000
-2318.395366 -3068.320030 220.000000
-2320.395191 -3068.346485 220.000000
-2322.395016 -3068.372939 220.000000
-2324.394841 -3068.399394 220.000000
-2326.394666 -3068.425849 220.000000
-2328.394491 -3068.452304 220.000000
-2332.000000 -3068.500000 220.000000
-2332.000000 -3068.500000 220.000000
-2332.139267 -3070.480204 219.756283
-2332.278534 -3072.460407 219.512565
-2332.417801 -3074.440611 219.268848
-2332.557068 -3076.420815 219.025131
-2332.696335 -3078.401018 218.781413
-2332.835602 -3080.381222 218.537696
-2332.974869 -3082.361426 218.293978
-2333.114137 -3084.341629 218.050261
-2333.253404 -3086.321833 217.806544
-2333.392671 -3088.302037 217.562826
-2333.531938 -3090.282240 217.319109
-2333.671205 -3092.262444 217.075392
-2333.810472 -3094.242648 216.831674
-2333.949739 -3096.222851 216.587957
-2334.089006 -3098.203055 216.344239
-2334.228273 -3100.183259 216.100522
-2334.367540 -3102.163462 215.856805
-2334.506807 -3104.143666 215.613087
-2334.646074 -3106.123869 215.369370
-2334.785341 -3108.104073 215.125653
-2334.924608 -3110.084277 214.881935
-2335.063876 -3112.064480 214.638218
-2335.203143 -3114.044684 214.394500
-2335.342410 -3116.024888 214.150783
-2335.481677 -3118.005091 213.907066
-2335.620944 -3119.985295 213.663348
-2335.760211 -3121.965499 213.419631
-2335.899478 -3123.945702 213.175914
-2336.038745 -3125.925906 212.932196
-2336.178012 -3127.906110 212.688479
-2336.317279 -3129.886313 212.444761
-2336.456546 -3131.866517 212.201044
-2336.595813 -3133.846721 211.957327
-2336.735080 -3135.826924 211.713609
-2336.874347 -3137.807128 211.469892
-2337.013615 -3139.787332 211.226175
-2337.152882 -3141.767535 210.982457
-2337.292149 -3143.747739 210.738740
-2337.431416 -3145.727943 210.495022
-2337.570683 -3147.708146 210.251305
-2337.709950 -3149.688350 210.007588
-2337.849217 -3151.668554 209.763870
-2337.988484 -3153.648757 209.520153
-2338.127751 -3155.628961 209.276436
-2338.267018 -3157.609165 209.032718
-2338.406285 -3159.589368 208.789001
-2338.545552 -3161.569572 208.545283
-2338.684819 -3163.549776 208.301566
-2338.824086 -3165.529979 208.057849
-2338.963354 -3167.510183 207.814131
-2339.102621 -3169.490387 207.570414
-2339.241888 -3171.470590 207.326697
-2339.381155 -3173.450794 207.082979
-2339.520422 -3175.430998 206.839262
-2339.659689 -3177.411201 206.595544
-2339.798956 -3179.391405 206.351827
-2339.938223 -3181.371608 206.108110
-2340.077490 -3183.351812 205.864392
-2340.216757 -3185.332016 205.620675
-2340.356024 -3187.312219 205.376958
-2340.495291 -3189.292423 205.133240
-2340.634558 -3191.272627 204.889523
-2340.773825 -3193.252830 204.645805
-2340.913093 -3195.233034 204.402088
-2341.052360 -3197.213238 204.158371
-2341.191627 -3199.193441 203.914653
-2341.330894 -3201.173645 203.670936
-2341.470161 -3203.153849 203.427219
-2341.609428 -3205.134052 203.183501
-2341.748695 -3207.114256 202.939784
-2341.887962 -3209.094460 202.696067
-2342.027229 -3211.074663 202.452349
-2342.166496 -3213.054867 202.208632
-2342.305763 -3215.035071 201.964914
-2342.445030 -3217.015274 201.721197
-2342.584297 -3218.995478 201.477480
-2342.723564 -3220.975682 201.233762
-2342.862831 -3222.955885 200.990045
-2343.002099 -3224.936089 200.746328
-2343.141366 -3226.916293 200.502610
-2343.280633 -3228.896496 200.258893
-2343.419900 -3230.876700 200.015175
-2343.559167 -3232.856904 199.771458
-2343.698434 -3234.837107 199.527741
-2343.837701 -3236.817311 199.284023
-2343.976968 -3238.797515 199.040306
-2344.116235 -3240.777718 198.796589
-2344.255502 -3242.757922 198.552871
-2344.394769 -3244.738126 198.309154
-2344.534036 -3246.718329 198.065436
-2344.673303 -3248.698533 197.821719
-2344.812570 -3250.678736 197.578002
-2344.951838 -3252.658940 197.334284
-2345.091105 -3254.639144 197.090567
-2345.230372 -3256.619347 196.846850
-2345.369639 -3258.599551 196.603132
-2345.508906 -3260.579755 196.359415
-2345.648173 -3262.559958 196.115697
-2345.787440 -3264.540162 195.871980
-2345.926707 -3266.520366 195.628263
-2346.065974 -3268.500569 195.384545
-2346.205241 -3270.480773 195.140828
-2346.344508 -3272.460977 194.897111
-2346.483775 -3274.441180 194.653393
-2346.623042 -3276.421384 194.409676
-2346.762309 -3278.401588 194.165958
-2346.901577 -3280.381791 193.922241
-2347.040844 -3282.361995 193.678524
-2347.180111 -3284.342199 193.434806
-2347.319378 -3286.322402 193.191089
-2347.458645 -3288.302606 192.947372
-2347.597912 -3290.282810 192.703654
-2347.737179 -3292.263013 192.459937
-2348.000000 -3296.000000 192.000000
-2348.000000 -3296.000000 192.000000
-2348.000000 -3294.161710 191.212161
-2348.000000 -3292.323420 190.424323
-2348.000000 -3290.485130 189.636484
-2348.000000 -3288.646840 188.848646
-2348.000000 -3286.808550 188.060807
-2348.000000 -3284.970260 187.272968
-2348.000000 -3283.131970 186.485130
-2348.000000 -3281.293680 185.697291
-2348.000000 -3279.455389 184.909453
-2348.000000 -3277.617099 184.121614
-2348.000000 -3275.778809 183.333775
-2348.000000 -3273.940519 182.545937
-2348.000000 -3272.102229 181.758098
-2348.000000 -3270.263939 180.970260
-2348.000000 -3268.425649 180.182421
-2348.000000 -3266.587359 179.394582
-2348.000000 -3264.749069 178.606744
-2348.000000 -3262.910779 177.818905
-2348.000000 -3261.072489 177.031067
-2348.000000 -3259.234199 176.243228
-2348.000000 -3257.395909 175.455389
-2348.000000 -3255.557619 174.667551
-2348.000000 -3253.719329 173.879712
-2348.000000 -3251.881039 173.091874
-2348.000000 -3250.042748 172.304035
-2348.000000 -3248.204458 171.516196
-2348.000000 -3246.366168 170.728358
-2348.000000 -3244.527878 169.940519
-2348.000000 -3242.689588 169.152681
-2348.000000 -3240.851298 168.364842
-2348.000000 -3239.013008 167.577003
-2348.000000 -3237.174718 166.789165
-2348.000000 -3235.336428 166.001326
-2348.000000 -3233.498138 165.213488
-2348.000000 -3231.659848 164.425649
-2348.000000 -3229.821558 163.637811
-2348.000000 -3227.983268 162.849972
-2348.000000 -3226.144978 162.062133
-2348.000000 -3224.306688 161.274295
-2348.000000 -3222.468398 160.486456
-2348.000000 -3220.630108 159.698618
-2348.000000 -3218.791817 158.910779
-2348.000000 -3216.953527 158.122940
-2348.000000 -3215.115237 157.335102
-2348.000000 -3213.276947 156.547263
-2348.000000 -3211.438657 155.759425
-2348.000000 -3209.600367 154.971586
-2348.000000 -3207.762077 154.183747
-2348.000000 -3205.923787 153.395909
-2348.000000 -3204.085497 152.608070
-2348.000000 -3202.247207 151.820232
-2348.000000 -3200.408917 151.032393
-2348.000000 -3198.570627 150.244554
-2348.000000 -3196.732337 149.456716
-2348.000000 -3194.894047 148.668877
-2348.000000 -3193.055757 147.881039
-2348.000000 -3191.217467 147.093200
-2348.000000 -3189.379177 146.305361
-2348.000000 -3187.540886 145.517523
-2348.000000 -3185.702596 144.729684
-2348.000000 -3183.864306 143.941846
-2348.000000 -3182.026016 143.154007
-2348.000000 -3180.187726 142.366168
-2348.000000 -3178.349436 141.578330
-2348.000000 -3176.511146 140.790491
-2348.000000 -3174.672856 140.002653
-2348.000000 -3172.834566 139.214814
-2348.000000 -3170.996276 138.426975
-2348.000000 -3169.157986 137.639137
-2348.000000 -3167.319696 136.851298
-2348.000000 -3165.481406 136.063460
-2348.000000 -3163.643116 135.275621
-2348.000000 -3161.804826 134.487782
-2348.000000 -3159.966536 133.699944
-2348.000000 -3158.128245 132.912105
-2348.000000 -3156.289955 132.124267
-2348.000000 -3154.451665 131.336428
-2348.000000 -3152.613375 130.548589
-2348.000000 -3150.775085 129.760751
-2348.000000 -3148.936795 128.972912
-2348.000000 -3147.098505 128.185074
-2348.000000 -3145.260215 127.397235
-2348.000000 -3143.421925 126.609396
-2348.000000 -3141.583635 125.821558
-2348.000000 -3139.745345 125.033719
-2348.000000 -3137.907055 124.245881
-2348.000000 -3136.068765 123.458042
-2348.000000 -3134.230475 122.670203
-2348.000000 -3132.392185 121.882365
-2348.000000 -3130.553895 121.094526
-2348.000000 -3128.715605 120.306688
-2348.000000 -3126.877314 119.518849
-2348.000000 -3125.039024 118.731010
-2348.000000 -3123.200734 117.943172
-2348.000000 -3121.362444 117.155333
-2348.000000 -3119.524154 116.367495
-2348.000000 -3117.685864 115.579656
-2348.000000 -3115.847574 114.791817
-2348.000000 -3114.009284 114.003979
-2348.000000 -3112.170994 113.216140
-2348.000000 -3110.332704 112.428302
-2348.000000 -3108.494414 111.640463
-2348.000000 -3106.656124 110.852624
-2348.000000 -3104.817834 110.064786
-2348.000000 -3102.979544 109.276947
-2348.000000 -3101.141254 108.489109
-2348.000000 -3099.302964 107.701270
-2348.000000 -3097.464674 106.913432
-2348.000000 -3095.626383 106.125593
-2348.000000 -3093.788093 105.337754
-2348.000000 -3091.949803 104.549916
-2348.000000 -3090.111513 103.762077
-2348.000000 -3088.273223 102.974239
-2348.000000 -3086.434933 102.186400
-2348.000000 -3084.596643 101.398561
-2348.000000 -3082.758353 100.610723
-2348.000000 -3080.920063 99.822884
-2348.000000 -3079.081773 99.035046
-2348.000000 -3077.243483 98.247207
-2348.000000 -3075.405193 97.459368
-2348.000000 -3072.000000 96.000000
-2348.000000 -3072.000000 96.000000
-2346.046200 -3071.572606 96.000000
-2344.092400 -3071.145212 96.000000
-2342.138600 -3070.717819 96.000000
-2340.184800 -3070.290425 96.000000
-2338.231000 -3069.863031 96.000000
-2336.277200 -3069.435637 96.000000
-2334.323400 -3069.008244 96.000000
-2332.000000 -3068.500000 96.000000
-2332.000000 -3068.500000 96.000000
-2331.823476 -3066.507805 96.000000
-2331.646953 -3064.515611 96.000000
-2331.470429 -3062.523416 96.000000
-2331.293906 -3060.531221 96.000000
-2331.117382 -3058.539027 96.000000
-2330.940859 -3056.546832 96.000000
-2330.764335 -3054.554638 96.000000
-2330.587811 -3052.562443 96.000000
-2330.411288 -3050.570248 96.000000
-2330.234764 -3048.578054 96.000000
-2330.058241 -3046.585859 96.000000
-2329.881717 -3044.593664 96.000000
-2329.705194 -3042.601470 96.000000
-2329.528670 -3040.609275 96.000000
-2329.352146 -3038.617081 96.000000
-2329.175623 -3036.624886 96.000000
-2328.999099 -3034.632691 96.000000
-2328.822576 -3032.640497 96.000000
-2328.646052 -3030.648302 96.000000
-2328.469529 -3028.656107 96.000000
-2328.293005 -3026.663913 96.000000
-2328.116481 -3024.671718 96.000000
-2327.939958 -3022.679524 96.000000
-2327.763434 -3020.687329 96.000000
-2327.586911 -3018.695134 96.000000
-2327.410387 -3016.702940 96.000000
-2327.233863 -3014.710745 96.000000
-2327.057340 -3012.718550 96.000000
-2326.880816 -3010.726356 96.000000
-2326.704293 -3008.734161 96.000000
-2326.527769 -3006.741967 96.000000
-2326.351246 -3004.749772 96.000000
-2326.174722 -3002.757577 96.000000
-2325.998198 -3000.765383 96.000000
-2325.821675 -2998.773188 96.000000
-2325.645151 -2996.780993 96.000000
-2325.468628 -2994.788799 96.000000
-2325.292104 -2992.796604 96.000000
-2325.115581 -2990.804410 96.000000
-2324.939057 -2988.812215 96.000000
-2324.762533 -2986.820020 96.000000
-2324.586010 -2984.827826 96.000000
-2324.409486 -2982.835631 96.000000
-2324.232963 -2980.843436 96.000000
-2324.056439 -2978.851242 96.000000
-2323.879916 -2976.859047 96.000000
-2323.703392 -2974.866853 96.000000
-2323.526868 -2972.874658 96.000000
-2323.350345 -2970.882463 96.000000
-2323.173821 -2968.890269 96.000000
-2322.997298 -2966.898074 96.000000
-2322.820774 -2964.905879 96.000000
-2322.644251 -2962.913685 96.000000
-2322.467727 -2960.921490 96.000000
-2322.291203 -2958.929296 96.000000
-2322.114680 -2956.937101 96.000000
-2321.938156 -2954.944906 96.000000
-2321.761633 -2952.952712 96.000000
-2321.585109 -2950.960517 96.000000
-2321.408586 -2948.968322 96.000000
-2321.232062 -2946.976128 96.000000
-2321.055538 -2944.983933 96.000000
-2320.879015 -2942.991739 96.000000
-2320.702491 -2940.999544 96.000000
-2320.525968 -2939.007349 96.000000
-2320.349444 -2937.015155 96.000000
-2320.172921 -2935.022960 96.000000
-2319.996397 -2933.030765 96.000000
-2319.819873 -2931.038571 96.000000
-2319.643350 -2929.046376 96.000000
-2319.466826 -2927.054182 96.000000
-2319.290303 -2925.061987 96.000000
-2319.113779 -2923.069792 96.000000
-2318.937255 -2921.077598 96.000000
-2318.760732 -2919.085403 96.000000
-2318.584208 -2917.093208 96.000000
-2318.407685 -2915.101014 96.000000
-2318.231161 -2913.108819 96.000000
-2318.054638 -2911.116625 96.000000
-2317.878114 -2909.124430 96.000000
-2317.701590 -2907.132235 96.000000
-2317.525067 -2905.140041 96.000000
-2317.348543 -2903.147846 96.000000
-2317.172020 -2901.155651 96.000000
-2316.995496 -2899.163457 96.000000
-2316.818973 -2897.171262 96.000000
-2316.642449 -2895.179068 96.000000
-2316.465925 -2893.186873 96.000000
-2316.289402 -2891.194678 96.000000
-2316.112878 -2889.202484 96.000000
-2315.936355 -2887.210289 96.000000
-2315.759831 -2885.218094 96.000000
-2315.583308 -2883.225900 96.000000
-2315.406784 -2881.233705 96.000000
-2315.230260 -2879.241511 96.000000
-2315.053737 -2877.249316 96.000000
-2314.877213 -2875.257121 96.000000
-2314.700690 -2873.264927 96.000000
-2314.524166 -2871.272732 96.000000
-2314.347643 -2869.280537 96.000000
-2314.171119 -2867.288343 96.000000
-2313.994595 -2865.296148 96.000000
-2313.818072 -2863.303954 96.000000
-2313.641548 -2861.311759 96.000000
-2313.465025 -2859.319564 96.000000
-2313.288501 -2857.327370 96.000000
-2313.111978 -2855.335175 96.000000
-2312.935454 -2853.342980 96.000000
-2312.758930 -2851.350786 96.000000
-2312.582407 -2849.358591 96.000000
-2312.405883 -2847.366397 96.000000
-2312.229360 -2845.374202 96.000000
-2312.052836 -2843.382007 96.000000
-2311.876313 -2841.389813 96.000000
-2311.699789 -2839.397618 96.000000
-2311.523265 -2837.405423 96.000000
-2311.346742 -2835.413229 96.000000
-2311.170218 -2833.421034 96.000000
-2310.993695 -2831.428840 96.000000
-2310.817171 -2829.436645 96.000000
-2310.640647 -2827.444450 96.000000
-2310.464124 -2825.452256 96.000000
-2310.287600 -2823.460061 96.000000
-2310.111077 -2821.467866 96.000000
-2309.934553 -2819.475672 96.000000
-2309.758030 -2817.483477 96.000000
-2309.581506 -2815.491283 96.000000
-2309.404982 -2813.499088 96.000000
-2309.228459 -2811.506893 96.000000
-2309.051935 -2809.514699 96.000000
-2308.875412 -2807.522504 96.000000
-2308.698888 -2805.530309 96.000000
-2308.522365 -2803.538115 96.000000
-2308.345841 -2801.545920 96.000000
-2308.169317 -2799.553725 96.000000
-2307.992794 -2797.561531 96.000000
-2307.816270 -2795.569336 96.000000
-2307.639747 -2793.577142 96.000000
-2307.463223 -2791.584947 96.000000
-2307.286700 -2789.592752 96.000000
-2307.110176 -2787.600558 96.000000
-2306.933652 -2785.608363 96.000000
-2306.757129 -2783.616168 96.000000
-2306.580605 -2781.623974 96.000000
-2306.404082 -2779.631779 96.000000
-2306.227558 -2777.639585 96.000000
-2306.051035 -2775.647390 96.000000
-2305.874511 -2773.655195 96.000000
-2305.697987 -2771.663001 96.000000
-2305.521464 -2769.670806 96.000000
-2305.344940 -2767.678611 96.000000
-2305.168417 -2765.686417 96.000000
-2304.991893 -2763.694222 96.000000
-2304.815370 -2761.702028 96.000000
-2304.638846 -2759.709833 96.000000
-2304.462322 -2757.717638 96.000000
-2304.285799 -2755.725444 96.000000
-2304.000000 -2752.500000 96.000000
-2304.000000 -2752.500000 96.000000
-2302.025896 -2752.500000 95.679198
-2300.051792 -2752.500000 95.358395
-2298.077689 -2752.500000 95.037593
-2296.103585 -2752.500000 94.716791
-2294.129481 -2752.500000 94.395988
-2292.155377 -2752.500000 94.075186
-2290.181273 -2752.500000 93.754384
-2288.207169 -2752.500000 93.433581
