-2168.774069 -2917.645229 76.644412
-2168.893453 -2919.508736 77.360715
-2169.012836 -2921.372242 78.077018
-2169.132220 -2923.235749 78.793321
-2169.251604 -2925.099256 79.509624
-2169.370988 -2926.962763 80.225927
-2169.490372 -2928.826270 80.942230
-2169.609755 -2930.689776 81.658533
-2169.729139 -2932.553283 82.374836
-2169.848523 -2934.416790 83.091139
-2169.967907 -2936.280297 83.807441
-2170.087291 -2938.143804 84.523744
-2170.206675 -2940.007310 85.240047
-2170.326058 -2941.870817 85.956350
-2170.445442 -2943.734324 86.672653
-2170.564826 -2945.597831 87.388956
-2170.684210 -2947.461338 88.105259
-2170.803594 -2949.324845 88.821562
-2170.922977 -2951.188351 89.537865
-2171.042361 -2953.051858 90.254168
-2171.161745 -2954.915365 90.970471
-2171.281129 -2956.778872 91.686774
-2171.400513 -2958.642379 92.403076
-2171.519897 -2960.505885 93.119379
-2171.639280 -2962.369392 93.835682
-2171.758664 -2964.232899 94.551985
-2171.878048 -2966.096406 95.268288
-2172.000000 -2968.000000 96.000000
-2172.000000 -2968.000000 96.000000
-2173.956318 -2968.415718 96.000000
-2175.912635 -2968.831435 96.000000
-2177.868953 -2969.247153 96.000000
-2179.825271 -2969.662870 96.000000
-2181.781589 -2970.078588 96.000000
-2183.737906 -2970.494305 96.000000
-2185.694224 -2970.910023 96.000000
-2187.650542 -2971.325740 96.000000
-2189.606859 -2971.741458 96.000000
-2191.563177 -2972.157175 96.000000
-2193.519495 -2972.572893 96.000000
-2195.475812 -2972.988610 96.000000
-2197.432130 -2973.404328 96.000000
-2199.388448 -2973.820045 96.000000
-2201.344766 -2974.235763 96.000000
-2203.301083 -2974.651480 96.000000
-2205.257401 -2975.067198 96.000000
-2207.213719 -2975.482915 96.000000
-2209.170036 -2975.898633 96.000000
-2211.126354 -2976.314350 96.000000
-2213.082672 -2976.730068 96.000000
-2215.038989 -2977.145785 96.000000
-2216.995307 -2977.561503 96.000000
-2218.951625 -2977.977220 96.000000
-2220.907943 -2978.392938 96.000000
-2222.864260 -2978.808655 96.000000
-2224.820578 -2979.224373 96.000000
-2226.776896 -2979.640090 96.000000
-2228.733213 -2980.055808 96.000000
-2230.689531 -2980.471525 96.000000
-2232.645849 -2980.887243 96.000000
-2234.602166 -2981.302960 96.000000
-2236.558484 -2981.718678 96.000000
-2238.514802 -2982.134395 96.000000
-2240.471120 -2982.550113 96.000000
-2242.427437 -2982.965830 96.000000
-2244.383755 -2983.381548 96.000000
-2246.340073 -2983.797265 96.000000
-2248.296390 -2984.212983 96.000000
-2250.252708 -2984.628700 96.000000
-2252.209026 -2985.044418 96.000000
-2254.165343 -2985.460135 96.000000
-2256.121661 -2985.875853 96.000000
-2258.077979 -2986.291571 96.000000
-2260.034297 -2986.707288 96.000000
-2261.990614 -2987.123006 96.000000
-2263.946932 -2987.538723 96.000000
-2265.903250 -2987.954441 96.000000
-2267.859567 -2988.370158 96.000000
-2269.815885 -2988.785876 96.000000
-2271.772203 -2989.201593 96.000000
-2273.728520 -2989.617311 96.000000
-2275.684838 -2990.033028 96.000000
-2277.641156 -2990.448746 96.000000
-2279.597474 -2990.864463 96.000000
-2281.553791 -2991.280181 96.000000
-2283.510109 -2991.695898 96.000000
-2285.466427 -2992.111616 96.000000
-2287.422744 -2992.527333 96.000000
-2289.379062 -2992.943051 96.000000
-2291.335380 -2993.358768 96.000000
-2293.291698 -2993.774486 96.000000
-2295.248015 -2994.190203 96.000000
-2297.204333 -2994.605921 96.000000
-2299.160651 -2995.021638 96.000000
-2301.116968 -2995.437356 96.000000
-2303.073286 -2995.853073 96.000000
-2305.029604 -2996.268791 96.000000
-2306.985921 -2996.684508 96.000000
-2308.942239 -2997.100226 96.000000
-2310.898557 -2997.515943 96.000000
-2312.854875 -2997.931661 96.000000
-2314.811192 -2998.347378 96.000000
-2316.767510 -2998.763096 96.000000
-2318.723828 -2999.178813 96.000000
-2320.680145 -2999.594531 96.000000
-2322.636463 -3000.010248 96.000000
-2324.592781 -3000.425966 96.000000
-2326.549098 -3000.841683 96.000000
-2328.505416 -3001.257401 96.000000
-2332.000000 -3002.000000 96.000000
-2332.000000 -3002.000000 96.000000
-2332.445650 -3003.949717 96.000000
-2332.891299 -3005.899434 96.000000
-2333.336949 -3007.849151 96.000000
-2333.782598 -3009.798868 96.000000
-2334.228248 -3011.748585 96.000000
-2334.673898 -3013.698302 96.000000
-2335.119547 -3015.648019 96.000000
-2335.565197 -3017.597736 96.000000
-2336.010846 -3019.547453 96.000000
-2336.456496 -3021.497170 96.000000
-2336.902146 -3023.446887 96.000000
-2337.347795 -3025.396604 96.000000
-2337.793445 -3027.346321 96.000000
-2338.239094 -3029.296038 96.000000
-2338.684744 -3031.245755 96.000000
-2339.130394 -3033.195472 96.000000
-2339.576043 -3035.145189 96.000000
-2340.021693 -3037.094906 96.000000
-2340.467342 -3039.044623 96.000000
-2340.912992 -3040.994340 96.000000
-2341.358642 -3042.944057 96.000000
-2341.804291 -3044.893774 96.000000
-2342.249941 -3046.843491 96.000000
-2342.695590 -3048.793208 96.000000
-2343.141240 -3050.742925 96.000000
-2343.586890 -3052.692642 96.000000
-2344.032539 -3054.642359 96.000000
-2344.478189 -3056.592076 96.000000
-2344.923838 -3058.541793 96.000000
-2345.369488 -3060.491510 96.000000
-2345.815138 -3062.441227 96.000000
-2346.260787 -3064.390944 96.000000
-2346.706437 -3066.340661 96.000000
-2347.152087 -3068.290378 96.000000
-2348.000000 -3072.000000 96.000000
-2348.000000 -3072.000000 96.000000
-2348.000000 -3073.838290 95.212161
-2348.000000 -3075.676580 94.424323
-2348.000000 -3077.514870 93.636484
-2348.000000 -3079.353160 92.848646
-2348.000000 -3081.191450 92.060807
-2348.000000 -3083.029740 91.272968
-2348.000000 -3084.868030 90.485130
-2348.000000 -3086.706320 89.697291
-2348.000000 -3088.544611 88.909453
-2348.000000 -3090.382901 88.121614
-2348.000000 -3092.221191 87.333775
-2348.000000 -3094.059481 86.545937
-2348.000000 -3095.897771 85.758098
-2348.000000 -3097.736061 84.970260
-2348.000000 -3099.574351 84.182421
-2348.000000 -3101.412641 83.394582
-2348.000000 -3103.250931 82.606744
-2348.000000 -3105.089221 81.818905
-2348.000000 -3106.927511 81.031067
-2348.000000 -3108.765801 80.243228
-2348.000000 -3110.604091 79.455389
-2348.000000 -3112.442381 78.667551
-2348.000000 -3114.280671 77.879712
-2348.000000 -3116.118961 77.091874
-2348.000000 -3117.957252 76.304035
-2348.000000 -3119.795542 75.516196
-2348.000000 -3121.633832 74.728358
-2348.000000 -3123.472122 73.940519
-2348.000000 -3125.310412 73.152681
-2348.000000 -3127.148702 72.364842
-2348.000000 -3128.986992 71.577003
-2348.000000 -3130.825282 70.789165
-2348.000000 -3132.663572 70.001326
-2348.000000 -3134.501862 69.213488
-2348.000000 -3136.340152 68.425649
-2348.000000 -3138.178442 67.637811
-2348.000000 -3140.016732 66.849972
-2348.000000 -3141.855022 66.062133
-2348.000000 -3143.693312 65.274295
-2348.000000 -3145.531602 64.486456
-2348.000000 -3147.369892 63.698618
-2348.000000 -3149.208183 62.910779
-2348.000000 -3151.046473 62.122940
-2348.000000 -3152.884763 61.335102
-2348.000000 -3154.723053 60.547263
-2348.000000 -3156.561343 59.759425
-2348.000000 -3158.399633 58.971586
-2348.000000 -3160.237923 58.183747
-2348.000000 -3162.076213 57.395909
-2348.000000 -3163.914503 56.608070
-2348.000000 -3165.752793 55.820232
-2348.000000 -3167.591083 55.032393
-2348.000000 -3169.429373 54.244554
-2348.000000 -3171.267663 53.456716
-2348.000000 -3173.105953 52.668877
-2348.000000 -3174.944243 51.881039
-2348.000000 -3176.782533 51.093200
-2348.000000 -3178.620823 50.305361
-2348.000000 -3180.459114 49.517523
-2348.000000 -3182.297404 48.729684
-2348.000000 -3184.135694 47.941846
-2348.000000 -3185.973984 47.154007
-2348.000000 -3187.812274 46.366168
-2348.000000 -3189.650564 45.578330
-2348.000000 -3191.488854 44.790491
-2348.000000 -3193.327144 44.002653
-2348.000000 -3195.165434 43.214814
-2348.000000 -3197.003724 42.426975
-2348.000000 -3198.842014 41.639137
-2348.000000 -3200.680304 40.851298
-2348.000000 -3202.518594 40.063460
-2348.000000 -3204.356884 39.275621
-2348.000000 -3206.195174 38.487782
-2348.000000 -3208.033464 37.699944
-2348.000000 -3209.871755 36.912105
-2348.000000 -3211.710045 36.124267
-2348.000000 -3213.548335 35.336428
-2348.000000 -3215.386625 34.548589
-2348.000000 -3217.224915 33.760751
-2348.000000 -3219.063205 32.972912
-2348.000000 -3220.901495 32.185074
-2348.000000 -3222.739785 31.397235
-2348.000000 -3224.578075 30.609396
-2348.000000 -3226.416365 29.821558
-2348.000000 -3228.254655 29.033719
-2348.000000 -3230.092945 28.245881
-2348.000000 -3231.931235 27.458042
-2348.000000 -3233.769525 26.670203
-2348.000000 -3235.607815 25.882365
-2348.000000 -3237.446105 25.094526
-2348.000000 -3239.284395 24.306688
-2348.000000 -3241.122686 23.518849
-2348.000000 -3242.960976 22.731010
-2348.000000 -3244.799266 21.943172
-2348.000000 -3246.637556 21.155333
-2348.000000 -3248.475846 20.367495
-2348.000000 -3250.314136 19.579656
-2348.000000 -3252.152426 18.791817
-2348.000000 -3253.990716 18.003979
-2348.000000 -3255.829006 17.216140
-2348.000000 -3257.667296 16.428302
-2348.000000 -3259.505586 15.640463
-2348.000000 -3261.343876 14.852624
-2348.000000 -3263.182166 14.064786
-2348.000000 -3265.020456 13.276947
-2348.000000 -3266.858746 12.489109
-2348.000000 -3268.697036 11.701270
-2348.000000 -3270.535326 10.913432
-2348.000000 -3272.373617 10.125593
-2348.000000 -3274.211907 9.337754
-2348.000000 -3276.050197 8.549916
-2348.000000 -3277.888487 7.762077
-2348.000000 -3279.726777 6.974239
-2348.000000 -3281.565067 6.186400
-2348.000000 -3283.403357 5.398561
-2348.000000 -3285.241647 4.610723
-2348.000000 -3287.079937 3.822884
-2348.000000 -3288.918227 3.035046
-2348.000000 -3290.756517 2.247207
-2348.000000 -3292.594807 1.459368
-2348.000000 -3296.000000 0.000000
-2348.000000 -3296.000000 0.000000
-2347.360639 -3294.601398 -1.278722
-2346.721278 -3293.202796 -2.557444
-2346.081917 -3291.804194 -3.836166
-2345.442556 -3290.405592 -5.114888
-2344.803195 -3289.006990 -6.393610
-2344.163834 -3287.608387 -7.672332
-2343.524473 -3286.209785 -8.951053
-2342.885112 -3284.811183 -10.229775
-2342.245751 -3283.412581 -11.508497
-2341.606390 -3282.013979 -12.787219
-2340.967029 -3280.615377 -14.065941
-2340.327668 -3279.216775 -15.344663
-2339.688308 -3277.818173 -16.623385
-2339.048947 -3276.419571 -17.902107
-2338.409586 -3275.020969 -19.180829
-2337.770225 -3273.622366 -20.459551
-2337.130864 -3272.223764 -21.738273
-2336.491503 -3270.825162 -23.016995
-2335.852142 -3269.426560 -24.295716
-2335.212781 -3268.027958 -25.574438
-2334.573420 -3266.629356 -26.853160
-2333.934059 -3265.230754 -28.131882
-2333.294698 -3263.832152 -29.410604
-2332.655337 -3262.433550 -30.689326
-2332.000000 -3261.000000 -32.000000
-2332.000000 -3261.000000 -32.000000
-2330.022446 -3261.263647 -32.140612
-2328.044892 -3261.527293 -32.281223
-2326.067339 -3261.790940 -32.421835
-2324.089785 -3262.054586 -32.562446
-2322.112231 -3262.318233 -32.703058
-2320.134677 -3262.581880 -32.843669
-2318.157124 -3262.845526 -32.984281
-2316.179570 -3263.109173 -33.124892
-2314.202016 -3263.372819 -33.265504
-2312.224462 -3263.636466 -33.406115
-2310.246909 -3263.900112 -33.546727
-2308.269355 -3264.163759 -33.687338
-2306.291801 -3264.427406 -33.827950
-2304.314247 -3264.691052 -33.968561
-2302.336694 -3264.954699 -34.109173
-2300.359140 -3265.218345 -34.249784
-2298.381586 -3265.481992 -34.390396
-2296.404032 -3265.745639 -34.531007
-2294.426479 -3266.009285 -34.671619
-2292.448925 -3266.272932 -34.812230
-2290.471371 -3266.536578 -34.952842
-2288.493817 -3266.800225 -35.093453
-2286.516263 -3267.063871 -35.234065
-2284.538710 -3267.327518 -35.374676
-2282.561156 -3267.591165 -35.515288
-2280.583602 -3267.854811 -35.655899
-2278.606048 -3268.118458 -35.796511
-2276.628495 -3268.382104 -35.937122
-2274.650941 -3268.645751 -36.077734
-2272.673387 -3268.909398 -36.218345
-2270.695833 -3269.173044 -36.358957
-2268.718280 -3269.436691 -36.499568
-2266.740726 -3269.700337 -36.640180
-2264.763172 -3269.963984 -36.780791
-2262.785618 -3270.227630 -36.921403
-2260.808065 -3270.491277 -37.062014
-2258.830511 -3270.754924 -37.202626
-2256.852957 -3271.018570 -37.343237
-2254.875403 -3271.282217 -37.483849
-2252.897850 -3271.545863 -37.624460
-2250.920296 -3271.809510 -37.765072
-2248.942742 -3272.073157 -37.905683
-2246.965188 -3272.336803 -38.046295
-2244.987634 -3272.600450 -38.186907
-2243.010081 -3272.864096 -38.327518
-2241.032527 -3273.127743 -38.468130
-2239.054973 -3273.391389 -38.608741
-2237.077419 -3273.655036 -38.749353
-2235.099866 -3273.918683 -38.889964
-2233.122312 -3274.182329 -39.030576
-2231.144758 -3274.445976 -39.171187
-2229.167204 -3274.709622 -39.311799
-2227.189651 -3274.973269 -39.452410
-2225.212097 -3275.236916 -39.593022
-2223.234543 -3275.500562 -39.733633
-2221.256989 -3275.764209 -39.874245
-2219.279436 -3276.027855 -40.014856
-2217.301882 -3276.291502 -40.155468
-2215.324328 -3276.555148 -40.296079
-2213.346774 -3276.818795 -40.436691
-2211.369221 -3277.082442 -40.577302
-2209.391667 -3277.346088 -40.717914
-2207.414113 -3277.609735 -40.858525
-2205.436559 -3277.873381 -40.999137
-2203.459005 -3278.137028 -41.139748
-2201.481452 -3278.400675 -41.280360
-2199.503898 -3278.664321 -41.420971
-2197.526344 -3278.927968 -41.561583
-2195.548790 -3279.191614 -41.702194
-2193.571237 -3279.455261 -41.842806
-2191.593683 -3279.718908 -41.983417
-2189.616129 -3279.982554 -42.124029
-2187.638575 -3280.246201 -42.264640
-2185.661022 -3280.509847 -42.405252
-2183.683468 -3280.773494 -42.545863
-2181.705914 -3281.037140 -42.686475
-2179.728360 -3281.300787 -42.827086
-2177.750807 -3281.564434 -42.967698
-2175.773253 -3281.828080 -43.108309
-2173.795699 -3282.091727 -43.248921
-2171.818145 -3282.355373 -43.389532
-2169.840592 -3282.619020 -43.530144
-2167.863038 -3282.882667 -43.670755
-2165.885484 -3283.146313 -43.811367
-2163.907930 -3283.409960 -43.951979
-2161.930376 -3283.673606 -44.092590
-2159.952823 -3283.937253 -44.233202
-2157.975269 -3284.200899 -44.373813
-2155.997715 -3284.464546 -44.514425
-2154.020161 -3284.728193 -44.655036
-2152.042608 -3284.991839 -44.795648
-2150.065054 -3285.255486 -44.936259
-2148.087500 -3285.519132 -45.076871
-2146.109946 -3285.782779 -45.217482
-2144.132393 -3286.046426 -45.358094
-2142.154839 -3286.310072 -45.498705
-2140.177285 -3286.573719 -45.639317
-2138.199731 -3286.837365 -45.779928
-2136.222178 -3287.101012 -45.920540
-2134.244624 -3287.364658 -46.061151
-2132.267070 -3287.628305 -46.201763
-2130.289516 -3287.891952 -46.342374
-2128.311963 -3288.155598 -46.482986
-2126.334409 -3288.419245 -46.623597
-2124.356855 -3288.682891 -46.764209
-2122.379301 -3288.946538 -46.904820
-2120.401747 -3289.210185 -47.045432
-2118.424194 -3289.473831 -47.186043
-2116.446640 -3289.737478 -47.326655
-2114.469086 -3290.001124 -47.467266
-2112.491532 -3290.264771 -47.607878
-2110.513979 -3290.528417 -47.748489
-2108.536425 -3290.792064 -47.889101
-2106.558871 -3291.055711 -48.029712
-2104.581317 -3291.319357 -48.170324
-2102.603764 -3291.583004 -48.310935
-2100.626210 -3291.846650 -48.451547
-2098.648656 -3292.110297 -48.592158
-2096.671102 -3292.373944 -48.732770
-2094.693549 -3292.637590 -48.873381
-2092.715995 -3292.901237 -49.013993
-2090.738441 -3293.164883 -49.154604
-2088.760887 -3293.428530 -49.295216
-2086.783334 -3293.692176 -49.435827
-2084.805780 -3293.955823 -49.576439
-2082.828226 -3294.219470 -49.717050
-2080.850672 -3294.483116 -49.857662
-2078.873118 -3294.746763 -49.998274
-2076.895565 -3295.010409 -50.138885
-2074.918011 -3295.274056 -50.279497
-2072.940457 -3295.537703 -50.420108
-2070.962903 -3295.801349 -50.560720
-2068.985350 -3296.064996 -50.701331
-2067.007796 -3296.328642 -50.841943
-2065.030242 -3296.592289 -50.982554
-2063.052688 -3296.855936 -51.123166
-2061.075135 -3297.119582 -51.263777
-2059.097581 -3297.383229 -51.404389
-2057.120027 -3297.646875 -51.545000
-2055.142473 -3297.910522 -51.685612
-2053.164920 -3298.174168 -51.826223
-2051.187366 -3298.437815 -51.966835
-2049.209812 -3298.701462 -52.107446
-2047.232258 -3298.965108 -52.248058
-2045.254705 -3299.228755 -52.388669
-2043.277151 -3299.492401 -52.529281
-2041.299597 -3299.756048 -52.669892
-2039.322043 -3300.019695 -52.810504
-2037.344489 -3300.283341 -52.951115
-2035.366936 -3300.546988 -53.091727
-2033.389382 -3300.810634 -53.232338
-2031.411828 -3301.074281 -53.372950
-2029.434274 -3301.337927 -53.513561
-2027.456721 -3301.601574 -53.654173
-2025.479167 -3301.865221 -53.794784
-2023.501613 -3302.128867 -53.935396
-2021.524059 -3302.392514 -54.076007
-2019.546506 -3302.656160 -54.216619
-2017.568952 -3302.919807 -54.357230
-2015.591398 -3303.183454 -54.497842
-2013.613844 -3303.447100 -54.638453
-2011.636291 -3303.710747 -54.779065
-2009.658737 -3303.974393 -54.919676
-2007.681183 -3304.238040 -55.060288
-2005.703629 -3304.501686 -55.200899
-2003.726076 -3304.765333 -55.341511
-2001.748522 -3305.028980 -55.482122
-1999.770968 -3305.292626 -55.622734
-1997.793414 -3305.556273 -55.763345
-1995.815860 -3305.819919 -55.903957
-1993.838307 -3306.083566 -56.044569
-1991.860753 -3306.347213 -56.185180
-1989.883199 -3306.610859 -56.325792
-1987.905645 -3306.874506 -56.466403
-1985.928092 -3307.138152 -56.607015
-1983.950538 -3307.401799 -56.747626
-1981.972984 -3307.665445 -56.888238
-1979.995430 -3307.929092 -57.028849
-1978.017877 -3308.192739 -57.169461
-1976.040323 -3308.456385 -57.310072
-1974.062769 -3308.720032 -57.450684
-1972.085215 -3308.983678 -57.591295
-1970.107662 -3309.247325 -57.731907
-1968.130108 -3309.510972 -57.872518
-1966.152554 -3309.774618 -58.013130
-1964.175000 -3310.038265 -58.153741
-1962.197447 -3310.301911 -58.294353
-1960.219893 -3310.565558 -58.434964
-1958.242339 -3310.829204 -58.575576
-1956.264785 -3311.092851 -58.716187
-1954.287231 -3311.356498 -58.856799
-1952.309678 -3311.620144 -58.997410
-1950.332124 -3311.883791 -59.138022
-1948.354570 -3312.147437 -59.278633
-1946.377016 -3312.411084 -59.419245
-1944.399463 -3312.674731 -59.559856
-1942.421909 -3312.938377 -59.700468
-1940.444355 -3313.202024 -59.841079
-1938.466801 -3313.465670 -59.981691
-1936.489248 -3313.729317 -60.122302
-1934.511694 -3313.992964 -60.262914
-1932.534140 -3314.256610 -60.403525
-1930.556586 -3314.520257 -60.544137
-1928.579033 -3314.783903 -60.684748
-1926.601479 -3315.047550 -60.825360
-1924.623925 -3315.311196 -60.965971
-1922.646371 -3315.574843 -61.106583
-1920.668818 -3315.838490 -61.247194
-1918.691264 -3316.102136 -61.387806
-1916.713710 -3316.365783 -61.528417
-1914.736156 -3316.629429 -61.669029
-1912.758602 -3316.893076 -61.809641
-1910.781049 -3317.156723 -61.950252
-1908.803495 -3317.420369 -62.090864
-1906.825941 -3317.684016 -62.231475
-1904.848387 -3317.947662 -62.372087
-1902.870834 -3318.211309 -62.512698
-1900.893280 -3318.474955 -62.653310
-1898.915726 -3318.738602 -62.793921
-1896.938172 -3319.002249 -62.934533
-1894.960619 -3319.265895 -63.075144
-1892.983065 -3319.529542 -63.215756
-1891.005511 -3319.793188 -63.356367
-1889.027957 -3320.056835 -63.496979
-1887.050404 -3320.320482 -63.637590
-1885.072850 -3320.584128 -63.778202
-1883.095296 -3320.847775 -63.918813
-1881.117742 -3321.111421 -64.059425
-1879.140189 -3321.375068 -64.200036
-1877.162635 -3321.638714 -64.340648
-1875.185081 -3321.902361 -64.481259
-1873.207527 -3322.166008 -64.621871
-1871.229973 -3322.429654 -64.762482
-1869.252420 -3322.693301 -64.903094
-1867.274866 -3322.956947 -65.043705
-1865.297312 -3323.220594 -65.184317
-1863.319758 -3323.484241 -65.324928
-1861.342205 -3323.747887 -65.465540
-1859.364651 -3324.011534 -65.606151
-1857.387097 -3324.275180 -65.746763
-1855.409543 -3324.538827 -65.887374
-1853.431990 -3324.802473 -66.027986
-1851.454436 -3325.066120 -66.168597
-1849.476882 -3325.329767 -66.309209
-1847.499328 -3325.593413 -66.449820
-1845.521775 -3325.857060 -66.590432
-1843.544221 -3326.120706 -66.731043
-1841.566667 -3326.384353 -66.871655
-1839.589113 -3326.648000 -67.012266
-1837.611560 -3326.911646 -67.152878
-1835.634006 -3327.175293 -67.293489
-1833.656452 -3327.438939 -67.434101
-1831.678898 -3327.702586 -67.574712
-1829.701344 -3327.966232 -67.715324
-1827.723791 -3328.229879 -67.855936
-1825.746237 -3328.493526 -67.996547
-1823.768683 -3328.757172 -68.137159
-1821.791129 -3329.020819 -68.277770
-1819.813576 -3329.284465 -68.418382
-1817.836022 -3329.548112 -68.558993
-1815.858468 -3329.811759 -68.699605
-1813.880914 -3330.075405 -68.840216
-1811.903361 -3330.339052 -68.980828
-1809.925807 -3330.602698 -69.121439
-1807.948253 -3330.866345 -69.262051
-1805.970699 -3331.129992 -69.402662
-1803.993146 -3331.393638 -69.543274
-1802.015592 -3331.657285 -69.683885
-1800.038038 -3331.920931 -69.824497
-1798.060484 -3332.184578 -69.965108
-1796.082931 -3332.448224 -70.105720
-1794.105377 -3332.711871 -70.246331
-1792.127823 -3332.975518 -70.386943
-1790.150269 -3333.239164 -70.527554
-1788.172715 -3333.502811 -70.668166
-1786.195162 -3333.766457 -70.808777
-1784.217608 -3334.030104 -70.949389
-1782.240054 -3334.293751 -71.090000
-1780.262500 -3334.557397 -71.230612
-1778.284947 -3334.821044 -71.371223
-1776.307393 -3335.084690 -71.511835
-1774.329839 -3335.348337 -71.652446
-1772.352285 -3335.611983 -71.793058
-1770.374732 -3335.875630 -71.933669
-1768.397178 -3336.139277 -72.074281
-1766.419624 -3336.402923 -72.214892
-1764.442070 -3336.666570 -72.355504
-1762.464517 -3336.930216 -72.496115
-1760.486963 -3337.193863 -72.636727
-1758.509409 -3337.457510 -72.777338
-1756.531855 -3337.721156 -72.917950
-1754.554302 -3337.984803 -73.058561
-1752.576748 -3338.248449 -73.199173
-1750.599194 -3338.512096 -73.339784
-1748.621640 -3338.775742 -73.480396
-1746.644086 -3339.039389 -73.621007
-1744.666533 -3339.303036 -73.761619
-1742.688979 -3339.566682 -73.902231
-1740.711425 -3339.830329 -74.042842
-1738.733871 -3340.093975 -74.183454
-1736.756318 -3340.357622 -74.324065
-1734.778764 -3340.621269 -74.464677
-1732.801210 -3340.884915 -74.605288
-1730.823656 -3341.148562 -74.745900
-1728.846103 -3341.412208 -74.886511
-1726.868549 -3341.675855 -75.027123
-1724.890995 -3341.939501 -75.167734
-1722.913441 -3342.203148 -75.308346
-1720.935888 -3342.466795 -75.448957
-1718.958334 -3342.730441 -75.589569
-1716.980780 -3342.994088 -75.730180
-1715.003226 -3343.257734 -75.870792
-1713.025673 -3343.521381 -76.011403
-1711.048119 -3343.785028 -76.152015
-1709.070565 -3344.048674 -76.292626
-1707.093011 -3344.312321 -76.433238
-1705.115457 -3344.575967 -76.573849
-1703.137904 -3344.839614 -76.714461
-1701.160350 -3345.103260 -76.855072
-1699.182796 -3345.366907 -76.995684
-1697.205242 -3345.630554 -77.136295
-1695.227689 -3345.894200 -77.276907
-1693.250135 -3346.157847 -77.417518
-1691.272581 -3346.421493 -77.558130
-1689.295027 -3346.685140 -77.698741
-1687.317474 -3346.948787 -77.839353
-1685.339920 -3347.212433 -77.979964
-1683.362366 -3347.476080 -78.120576
-1681.384812 -3347.739726 -78.261187
-1679.407259 -3348.003373 -78.401799
-1677.429705 -3348.267020 -78.542410
-1675.452151 -3348.530666 -78.683022
-1673.474597 -3348.794313 -78.823633
-1671.497044 -3349.057959 -78.964245
-1669.519490 -3349.321606 -79.104856
-1667.541936 -3349.585252 -79.245468
-1665.564382 -3349.848899 -79.386079
-1663.586828 -3350.112546 -79.526691
-1661.609275 -3350.376192 -79.667303
-1659.631721 -3350.639839 -79.807914
-1657.654167 -3350.903485 -79.948526
-1655.676613 -3351.167132 -80.089137
-1653.699060 -3351.430779 -80.229749
-1651.721506 -3351.694425 -80.370360
-1649.743952 -3351.958072 -80.510972
-1647.766398 -3352.221718 -80.651583
-1645.788845 -3352.485365 -80.792195
-1643.811291 -3352.749011 -80.932806
-1641.833737 -3353.012658 -81.073418
-1639.856183 -3353.276305 -81.214029
-1637.878630 -3353.539951 -81.354641
-1635.901076 -3353.803598 -81.495252
-1633.923522 -3354.067244 -81.635864
-1631.945968 -3354.330891 -81.776475
-1629.968415 -3354.594538 -81.917087
-1627.990861 -3354.858184 -82.057698
-1626.013307 -3355.121831 -82.198310
-1624.035753 -3355.385477 -82.338921
-1622.058199 -3355.649124 -82.479533
-1620.080646 -3355.912770 -82.620144
-1618.103092 -3356.176417 -82.760756
-1616.125538 -3356.440064 -82.901367
-1614.147984 -3356.703710 -83.041979
-1612.170431 -3356.967357 -83.182590
-1610.192877 -3357.231003 -83.323202
-1608.215323 -3357.494650 -83.463813
-1606.237769 -3357.758297 -83.604425
-1604.260216 -3358.021943 -83.745036
-1602.282662 -3358.285590 -83.885648
-1600.305108 -3358.549236 -84.026259
-1598.327554 -3358.812883 -84.166871
-1596.350001 -3359.076529 -84.307482
-1594.372447 -3359.340176 -84.448094
-1592.394893 -3359.603823 -84.588705
-1590.417339 -3359.867469 -84.729317
-1588.439786 -3360.131116 -84.869928
-1586.462232 -3360.394762 -85.010540
-1584.484678 -3360.658409 -85.151151
-1582.507124 -3360.922056 -85.291763
-1580.529570 -3361.185702 -85.432374
-1578.552017 -3361.449349 -85.572986
-1576.574463 -3361.712995 -85.713598
-1574.596909 -3361.976642 -85.854209
-1572.619355 -3362.240288 -85.994821
-1570.641802 -3362.503935 -86.135432
-1568.664248 -3362.767582 -86.276044
-1566.686694 -3363.031228 -86.416655
-1564.709140 -3363.294875 -86.557267
-1562.731587 -3363.558521 -86.697878
-1560.754033 -3363.822168 -86.838490
-1558.776479 -3364.085815 -86.979101
-1556.798925 -3364.349461 -87.119713
-1554.821372 -3364.613108 -87.260324
-1552.843818 -3364.876754 -87.400936
-1550.866264 -3365.140401 -87.541547
-1548.888710 -3365.404048 -87.682159
-1546.911157 -3365.667694 -87.822770
-1544.933603 -3365.931341 -87.963382
-1542.956049 -3366.194987 -88.103993
-1540.978495 -3366.458634 -88.244605
-1539.000941 -3366.722280 -88.385216
-1537.023388 -3366.985927 -88.525828
-1535.045834 -3367.249574 -88.666439
-1533.068280 -3367.513220 -88.807051
-1531.090726 -3367.776867 -88.947662
-1529.113173 -3368.040513 -89.088274
-1527.135619 -3368.304160 -89.228885
-1525.158065 -3368.567807 -89.369497
-1523.180511 -3368.831453 -89.510108
-1521.202958 -3369.095100 -89.650720
-1519.225404 -3369.358746 -89.791331
-1517.247850 -3369.622393 -89.931943
-1515.270296 -3369.886039 -90.072554
-1513.292743 -3370.149686 -90.213166
-1511.315189 -3370.413333 -90.353777
-1509.337635 -3370.676979 -90.494389
-1507.360081 -3370.940626 -90.635000
-1505.382528 -3371.204272 -90.775612
-1503.404974 -3371.467919 -90.916223
-1501.427420 -3371.731566 -91.056835
-1499.449866 -3371.995212 -91.197446
-1497.472312 -3372.258859 -91.338058
-1495.494759 -3372.522505 -91.478669
-1493.517205 -3372.786152 -91.619281
-1491.539651 -3373.049798 -91.759893
-1489.562097 -3373.313445 -91.900504
-1487.584544 -3373.577092 -92.041116
-1485.606990 -3373.840738 -92.181727
-1483.629436 -3374.104385 -92.322339
-1481.651882 -3374.368031 -92.462950
-1479.674329 -3374.631678 -92.603562
-1477.696775 -3374.895325 -92.744173
-1475.719221 -3375.158971 -92.884785
-1473.741667 -3375.422618 -93.025396
-1471.764114 -3375.686264 -93.166008
-1469.786560 -3375.949911 -93.306619
-1467.809006 -3376.213557 -93.447231
-1465.831452 -3376.477204 -93.587842
-1463.853899 -3376.740851 -93.728454
-1461.876345 -3377.004497 -93.869065
-1459.898791 -3377.268144 -94.009677
-1457.921237 -3377.531790 -94.150288
-1455.943683 -3377.795437 -94.290900
-1453.966130 -3378.059084 -94.431511
-1451.988576 -3378.322730 -94.572123
-1450.011022 -3378.586377 -94.712734
-1448.033468 -3378.850023 -94.853346
-1446.055915 -3379.113670 -94.993957
-1444.078361 -3379.377316 -95.134569
-1442.100807 -3379.640963 -95.275180
-1440.123253 -3379.904610 -95.415792
-1438.145700 -3380.168256 -95.556403
-1436.168146 -3380.431903 -95.697015
-1434.190592 -3380.695549 -95.837626
-1432.213038 -3380.959196 -95.978238
-1430.235485 -3381.222843 -96.118849
-1428.257931 -3381.486489 -96.259461
-1426.280377 -3381.750136 -96.400072
-1424.302823 -3382.013782 -96.540684
-1422.325270 -3382.277429 -96.681295
-1420.347716 -3382.541076 -96.821907
-1418.370162 -3382.804722 -96.962518
-1416.392608 -3383.068369 -97.103130
-1414.415054 -3383.332015 -97.243741
-1412.437501 -3383.595662 -97.384353
-1410.459947 -3383.859308 -97.524964
-1408.482393 -3384.122955 -97.665576
-1406.504839 -3384.386602 -97.806188
-1404.527286 -3384.650248 -97.946799
-1402.549732 -3384.913895 -98.087411
-1400.572178 -3385.177541 -98.228022
-1398.594624 -3385.441188 -98.368634
-1396.617071 -3385.704835 -98.509245
-1394.639517 -3385.968481 -98.649857
-1392.661963 -3386.232128 -98.790468
-1390.684409 -3386.495774 -98.931080
-1388.706856 -3386.759421 -99.071691
-1386.729302 -3387.023067 -99.212303
-1384.751748 -3387.286714 -99.352914
-1382.774194 -3387.550361 -99.493526
-1380.796641 -3387.814007 -99.634137
-1378.819087 -3388.077654 -99.774749
-1376.841533 -3388.341300 -99.915360
-1374.863979 -3388.604947 -100.055972
-1372.886425 -3388.868594 -100.196583
-1370.908872 -3389.132240 -100.337195
-1368.931318 -3389.395887 -100.477806
-1366.953764 -3389.659533 -100.618418
-1364.976210 -3389.923180 -100.759029
-1362.998657 -3390.186826 -100.899641
-1361.021103 -3390.450473 -101.040252
-1359.043549 -3390.714120 -101.180864
-1357.065995 -3390.977766 -101.321475
-1355.088442 -3391.241413 -101.462087
-1353.110888 -3391.505059 -101.602698
-1351.133334 -3391.768706 -101.743310
-1349.155780 -3392.032353 -101.883921
-1347.178227 -3392.295999 -102.024533
-1345.200673 -3392.559646 -102.165144
-1343.223119 -3392.823292 -102.305756
-1341.245565 -3393.086939 -102.446367
-1339.268012 -3393.350585 -102.586979
-1337.290458 -3393.614232 -102.727590
-1335.312904 -3393.877879 -102.868202
-1333.335350 -3394.141525 -103.008813
-1331.357796 -3394.405172 -103.149425
-1329.380243 -3394.668818 -103.290036
-1327.402689 -3394.932465 -103.430648
-1325.425135 -3395.196112 -103.571260
-1323.447581 -3395.459758 -103.711871
-1321.470028 -3395.723405 -103.852483
-1319.492474 -3395.987051 -103.993094
-1317.514920 -3396.250698 -104.133706
-1315.537366 -3396.514344 -104.274317
-1313.559813 -3396.777991 -104.414929
-1311.582259 -3397.041638 -104.555540
-1309.604705 -3397.305284 -104.696152
-1307.627151 -3397.568931 -104.836763
-1305.649598 -3397.832577 -104.977375
-1303.672044 -3398.096224 -105.117986
-1301.694490 -3398.359871 -105.258598
-1299.716936 -3398.623517 -105.399209
-1297.739383 -3398.887164 -105.539821
-1295.761829 -3399.150810 -105.680432
-1293.784275 -3399.414457 -105.821044
-1291.806721 -3399.678104 -105.961655
-1289.829167 -3399.941750 -106.102267
-1287.851614 -3400.205397 -106.242878
-1285.874060 -3400.469043 -106.383490
-1283.896506 -3400.732690 -106.524101
-1281.918952 -3400.996336 -106.664713
-1279.941399 -3401.259983 -106.805324
-1277.963845 -3401.523630 -106.945936
-1275.986291 -3401.787276 -107.086547
-1274.008737 -3402.050923 -107.227159
-1272.031184 -3402.314569 -107.367770
-1270.053630 -3402.578216 -107.508382
-1268.076076 -3402.841863 -107.648993
-1266.098522 -3403.105509 -107.789605
-1264.120969 -3403.369156 -107.930216
-1262.143415 -3403.632802 -108.070828
-1260.165861 -3403.896449 -108.211439
-1258.188307 -3404.160095 -108.352051
-1256.210754 -3404.423742 -108.492662
-1254.233200 -3404.687389 -108.633274
-1252.255646 -3404.951035 -108.773885
-1250.278092 -3405.214682 -108.914497
-1248.300538 -3405.478328 -109.055108
-1246.322985 -3405.741975 -109.195720
-1244.345431 -3406.005622 -109.336331
-1242.367877 -3406.269268 -109.476943
-1240.390323 -3406.532915 -109.617555
-1238.412770 -3406.796561 -109.758166
-1236.435216 -3407.060208 -109.898778
-1234.457662 -3407.323854 -110.039389
-1232.480108 -3407.587501 -110.180001
-1230.502555 -3407.851148 -110.320612
-1228.525001 -3408.114794 -110.461224
-1226.547447 -3408.378441 -110.601835
-1224.569893 -3408.642087 -110.742447
-1222.592340 -3408.905734 -110.883058
-1220.614786 -3409.169381 -111.023670
-1218.637232 -3409.433027 -111.164281
-1216.659678 -3409.696674 -111.304893
-1214.682125 -3409.960320 -111.445504
-1212.704571 -3410.223967 -111.586116
-1210.727017 -3410.487613 -111.726727
-1208.749463 -3410.751260 -111.867339
-1206.771909 -3411.014907 -112.007950
-1204.794356 -3411.278553 -112.148562
-1202.816802 -3411.542200 -112.289173
-1200.839248 -3411.805846 -112.429785
-1198.861694 -3412.069493 -112.570396
-1196.884141 -3412.333140 -112.711008
-1194.906587 -3412.596786 -112.851619
-1192.929033 -3412.860433 -112.992231
-1190.951479 -3413.124079 -113.132842
-1188.973926 -3413.387726 -113.273454
-1186.996372 -3413.651372 -113.414065
-1185.018818 -3413.915019 -113.554677
-1183.041264 -3414.178666 -113.695288
-1181.063711 -3414.442312 -113.835900
-1179.086157 -3414.705959 -113.976511
-1177.108603 -3414.969605 -114.117123
-1175.131049 -3415.233252 -114.257734
-1173.153496 -3415.496899 -114.398346
-1171.175942 -3415.760545 -114.538957
-1169.198388 -3416.024192 -114.679569
-1167.220834 -3416.287838 -114.820180
-1165.243280 -3416.551485 -114.960792
-1163.265727 -3416.815132 -115.101403
-1161.288173 -3417.078778 -115.242015
-1159.310619 -3417.342425 -115.382626
-1157.333065 -3417.606071 -115.523238
-1155.355512 -3417.869718 -115.663850
-1153.377958 -3418.133364 -115.804461
-1151.400404 -3418.397011 -115.945073
-1149.422850 -3418.660658 -116.085684
-1147.445297 -3418.924304 -116.226296
-1145.467743 -3419.187951 -116.366907
-1143.490189 -3419.451597 -116.507519
-1141.512635 -3419.715244 -116.648130
-1139.535082 -3419.978891 -116.788742
-1137.557528 -3420.242537 -116.929353
-1135.579974 -3420.506184 -117.069965
-1133.602420 -3420.769830 -117.210576
-1131.624867 -3421.033477 -117.351188
-1129.647313 -3421.297123 -117.491799
-1127.669759 -3421.560770 -117.632411
-1125.692205 -3421.824417 -117.773022
-1122.500000 -3422.250000 -118.000000
-1122.500000 -3422.250000 -118.000000
-1121.726148 -3424.075807 -117.740034
-1120.952296 -3425.901614 -117.480068
-1120.178444 -3427.727421 -117.220102
-1119.404592 -3429.553228 -116.960136
-1118.630740 -3431.379035 -116.700171
-1117.856888 -3433.204842 -116.440205
-1117.083036 -3435.030648 -116.180239
-1116.309184 -3436.856455 -115.920273
-1115.535333 -3438.682262 -115.660307
-1114.761481 -3440.508069 -115.400341
-1113.987629 -3442.333876 -115.140375
-1113.213777 -3444.159683 -114.880409
-1112.439925 -3445.985490 -114.620443
-1111.666073 -3447.811297 -114.360478
-1110.892221 -3449.637104 -114.100512
-1110.118369 -3451.462911 -113.840546
-1109.344517 -3453.288718 -113.580580
-1108.570665 -3455.114525 -113.320614
-1107.796813 -3456.940331 -113.060648
-1107.022961 -3458.766138 -112.800682
-1106.249109 -3460.591945 -112.540716
-1105.475257 -3462.417752 -112.280751
-1104.701405 -3464.243559 -112.020785
-1103.927553 -3466.069366 -111.760819
-1103.153701 -3467.895173 -111.500853
-1102.379850 -3469.720980 -111.240887
-1101.605998 -3471.546787 -110.980921
-1100.832146 -3473.372594 -110.720955
-1100.058294 -3475.198401 -110.460989
-1099.284442 -3477.024208 -110.201023
-1098.510590 -3478.850015 -109.941058
-1097.736738 -3480.675821 -109.681092
-1096.962886 -3482.501628 -109.421126
-1096.189034 -3484.327435 -109.161160
-1095.415182 -3486.153242 -108.901194
-1094.641330 -3487.979049 -108.641228
-1093.867478 -3489.804856 -108.381262
-1093.093626 -3491.630663 -108.121296
-1092.319774 -3493.456470 -107.861330
-1091.545922 -3495.282277 -107.601365
-1090.772070 -3497.108084 -107.341399
-1089.998219 -3498.933891 -107.081433
-1089.224367 -3500.759698 -106.821467
-1088.450515 -3502.585505 -106.561501
-1087.676663 -3504.411311 -106.301535
-1086.902811 -3506.237118 -106.041569
-1086.128959 -3508.062925 -105.781603
-1085.355107 -3509.888732 -105.521637
-1084.581255 -3511.714539 -105.261672
-1083.807403 -3513.540346 -105.001706
-1083.033551 -3515.366153 -104.741740
-1082.259699 -3517.191960 -104.481774
-1081.485847 -3519.017767 -104.221808
-1080.711995 -3520.843574 -103.961842
-1079.938143 -3522.669381 -103.701876
-1079.164291 -3524.495188 -103.441910
-1078.390439 -3526.320994 -103.181944
-1077.616587 -3528.146801 -102.921979
-1076.842736 -3529.972608 -102.662013
-1076.068884 -3531.798415 -102.402047
-1075.295032 -3533.624222 -102.142081
-1074.521180 -3535.450029 -101.882115
-1073.747328 -3537.275836 -101.622149
-1072.973476 -3539.101643 -101.362183
-1072.199624 -3540.927450 -101.102217
-1071.425772 -3542.753257 -100.842252
-1070.651920 -3544.579064 -100.582286
-1069.878068 -3546.404871 -100.322320
-1069.104216 -3548.230678 -100.062354
-1068.330364 -3550.056484 -99.802388
-1067.556512 -3551.882291 -99.542422
-1066.782660 -3553.708098 -99.282456
-1066.008808 -3555.533905 -99.022490
-1065.234956 -3557.359712 -98.762524
-1064.461104 -3559.185519 -98.502559
-1063.687253 -3561.011326 -98.242593
-1062.913401 -3562.837133 -97.982627
-1062.139549 -3564.662940 -97.722661
-1061.365697 -3566.488747 -97.462695
-1060.591845 -3568.314554 -97.202729
-1059.817993 -3570.140361 -96.942763
-1059.044141 -3571.966168 -96.682797
-1058.270289 -3573.791974 -96.422831
-1057.496437 -3575.617781 -96.162866
-1056.722585 -3577.443588 -95.902900
-1055.948733 -3579.269395 -95.642934
-1055.174881 -3581.095202 -95.382968
-1054.401029 -3582.921009 -95.123002
-1053.627177 -3584.746816 -94.863036
-1052.853325 -3586.572623 -94.603070
-1052.079473 -3588.398430 -94.343104
-1051.305622 -3590.224237 -94.083138
-1050.531770 -3592.050044 -93.823173
-1049.757918 -3593.875851 -93.563207
-1048.984066 -3595.701657 -93.303241
-1048.210214 -3597.527464 -93.043275
-1047.436362 -3599.353271 -92.783309
-1046.662510 -3601.179078 -92.523343
-1045.888658 -3603.004885 -92.263377
-1045.114806 -3604.830692 -92.003411
-1044.340954 -3606.656499 -91.743446
-1043.567102 -3608.482306 -91.483480
-1042.793250 -3610.308113 -91.223514
-1042.019398 -3612.133920 -90.963548
-1041.245546 -3613.959727 -90.703582
-1040.471694 -3615.785534 -90.443616
-1039.697842 -3617.611341 -90.183650
-1038.923990 -3619.437147 -89.923684
-1038.150139 -3621.262954 -89.663718
-1037.376287 -3623.088761 -89.403753
-1036.602435 -3624.914568 -89.143787
-1035.828583 -3626.740375 -88.883821
-1035.054731 -3628.566182 -88.623855
-1034.280879 -3630.391989 -88.363889
-1033.507027 -3632.217796 -88.103923
-1032.733175 -3634.043603 -87.843957
-1031.959323 -3635.869410 -87.583991
-1031.185471 -3637.695217 -87.324025
-1030.411619 -3639.521024 -87.064060
-1029.637767 -3641.346831 -86.804094
-1028.863915 -3643.172637 -86.544128
-1028.090063 -3644.998444 -86.284162
-1027.316211 -3646.824251 -86.024196
-1026.542359 -3648.650058 -85.764230
-1025.768507 -3650.475865 -85.504264
-1024.994656 -3652.301672 -85.244298
-1024.220804 -3654.127479 -84.984332
-1023.446952 -3655.953286 -84.724367
-1022.673100 -3657.779093 -84.464401
-1021.899248 -3659.604900 -84.204435
-1021.125396 -3661.430707 -83.944469
-1020.351544 -3663.256514 -83.684503
-1019.577692 -3665.082320 -83.424537
-1018.803840 -3666.908127 -83.164571
-1018.029988 -3668.733934 -82.904605
-1017.256136 -3670.559741 -82.644639
-1016.482284 -3672.385548 -82.384674
-1015.708432 -3674.211355 -82.124708
-1014.934580 -3676.037162 -81.864742
-1014.160728 -3677.862969 -81.604776
-1013.386876 -3679.688776 -81.344810
-1012.613025 -3681.514583 -81.084844
-1011.839173 -3683.340390 -80.824878
-1011.065321 -3685.166197 -80.564912
-1010.291469 -3686.992004 -80.304947
-1009.517617 -3688.817810 -80.044981
-1008.743765 -3690.643617 -79.785015
-1007.969913 -3692.469424 -79.525049
-1007.196061 -3694.295231 -79.265083
-1006.422209 -3696.121038 -79.005117
-1005.648357 -3697.946845 -78.745151
-1004.874505 -3699.772652 -78.485185
-1004.100653 -3701.598459 -78.225219
-1003.326801 -3703.424266 -77.965254
-1002.552949 -3705.250073 -77.705288
-1001.779097 -3707.075880 -77.445322
-1001.005245 -3708.901687 -77.185356
-1000.231393 -3710.727494 -76.925390
-999.457542 -3712.553300 -76.665424
-998.683690 -3714.379107 -76.405458
-997.909838 -3716.204914 -76.145492
-997.135986 -3718.030721 -75.885526
-996.362134 -3719.856528 -75.625561
-995.588282 -3721.682335 -75.365595
-994.814430 -3723.508142 -75.105629
-994.040578 -3725.333949 -74.845663
-993.266726 -3727.159756 -74.585697
-992.492874 -3728.985563 -74.325731
-991.719022 -3730.811370 -74.065765
-990.945170 -3732.637177 -73.805799
-990.171318 -3734.462983 -73.545833
-989.397466 -3736.288790 -73.285868
-988.623614 -3738.114597 -73.025902
-987.849762 -3739.940404 -72.765936
-987.075910 -3741.766211 -72.505970
-986.302059 -3743.592018 -72.246004
-985.528207 -3745.417825 -71.986038
-984.754355 -3747.243632 -71.726072
-983.980503 -3749.069439 -71.466106
-983.206651 -3750.895246 -71.206141
-982.432799 -3752.721053 -70.946175
-981.658947 -3754.546860 -70.686209
-980.885095 -3756.372667 -70.426243
-980.111243 -3758.198473 -70.166277
-979.337391 -3760.024280 -69.906311
-978.563539 -3761.850087 -69.646345
-977.789687 -3763.675894 -69.386379
-977.015835 -3765.501701 -69.126413
-976.241983 -3767.327508 -68.866448
-975.468131 -3769.153315 -68.606482
-974.694279 -3770.979122 -68.346516
-973.920428 -3772.804929 -68.086550
-973.146576 -3774.630736 -67.826584
-972.372724 -3776.456543 -67.566618
-971.598872 -3778.282350 -67.306652
-970.825020 -3780.108157 -67.046686
-970.051168 -3781.933963 -66.786720
-969.277316 -3783.759770 -66.526755
-968.503464 -3785.585577 -66.266789
-967.729612 -3787.411384 -66.006823
-966.955760 -3789.237191 -65.746857
-966.181908 -3791.062998 -65.486891
-965.408056 -3792.888805 -65.226925
-964.634204 -3794.714612 -64.966959
-963.860352 -3796.540419 -64.706993
-963.086500 -3798.366226 -64.447027
-962.312648 -3800.192033 -64.187062
-961.538796 -3802.017840 -63.927096
-960.764945 -3803.843646 -63.667130
-959.991093 -3805.669453 -63.407164
-959.217241 -3807.495260 -63.147198
-958.443389 -3809.321067 -62.887232
-957.669537 -3811.146874 -62.627266
-956.895685 -3812.972681 -62.367300
-956.121833 -3814.798488 -62.107334
-955.347981 -3816.624295 -61.847369
-954.574129 -3818.450102 -61.587403
-953.800277 -3820.275909 -61.327437
-953.026425 -3822.101716 -61.067471
-952.252573 -3823.927523 -60.807505
-951.478721 -3825.753330 -60.547539
-950.704869 -3827.579136 -60.287573
-949.931017 -3829.404943 -60.027607
-949.157165 -3831.230750 -59.767642
-948.383313 -3833.056557 -59.507676
-947.609462 -3834.882364 -59.247710
-946.835610 -3836.708171 -58.987744
-946.061758 -3838.533978 -58.727778
-945.287906 -3840.359785 -58.467812
-944.514054 -3842.185592 -58.207846
-943.740202 -3844.011399 -57.947880
-942.966350 -3845.837206 -57.687914
-942.192498 -3847.663013 -57.427949
-941.418646 -3849.488820 -57.167983
-940.644794 -3851.314626 -56.908017
-939.870942 -3853.140433 -56.648051
-939.097090 -3854.966240 -56.388085
-938.323238 -3856.792047 -56.128119
-937.549386 -3858.617854 -55.868153
-936.775534 -3860.443661 -55.608187
-936.001682 -3862.269468 -55.348221
-935.227831 -3864.095275 -55.088256
-934.453979 -3865.921082 -54.828290
-933.680127 -3867.746889 -54.568324
-932.906275 -3869.572696 -54.308358
-932.132423 -3871.398503 -54.048392
-931.358571 -3873.224309 -53.788426
-930.584719 -3875.050116 -53.528460
-929.810867 -3876.875923 -53.268494
-929.037015 -3878.701730 -53.008528
-928.263163 -3880.527537 -52.748563
-927.489311 -3882.353344 -52.488597
-926.715459 -3884.179151 -52.228631
-925.941607 -3886.004958 -51.968665
-925.167755 -3887.830765 -51.708699
-924.393903 -3889.656572 -51.448733
-923.620051 -3891.482379 -51.188767
-922.846199 -3893.308186 -50.928801
-922.072348 -3895.133993 -50.668835
-921.298496 -3896.959799 -50.408870
-920.524644 -3898.785606 -50.148904
-919.750792 -3900.611413 -49.888938
-918.976940 -3902.437220 -49.628972
-918.203088 -3904.263027 -49.369006
-917.429236 -3906.088834 -49.109040
-916.655384 -3907.914641 -48.849074
-915.881532 -3909.740448 -48.589108
-915.107680 -3911.566255 -48.329143
-914.333828 -3913.392062 -48.069177
-913.559976 -3915.217869 -47.809211
-912.786124 -3917.043676 -47.549245
-912.012272 -3918.869483 -47.289279
-911.238420 -3920.695289 -47.029313
-910.464568 -3922.521096 -46.769347
-909.690716 -3924.346903 -46.509381
-908.916865 -3926.172710 -46.249415
-908.143013 -3927.998517 -45.989450
-907.369161 -3929.824324 -45.729484
-906.595309 -3931.650131 -45.469518
-905.821457 -3933.475938 -45.209552
-905.047605 -3935.301745 -44.949586
-904.273753 -3937.127552 -44.689620
-903.499901 -3938.953359 -44.429654
-902.726049 -3940.779166 -44.169688
-901.952197 -3942.604972 -43.909722
-901.178345 -3944.430779 -43.649757
-900.404493 -3946.256586 -43.389791
-899.630641 -3948.082393 -43.129825
-898.856789 -3949.908200 -42.869859
-898.082937 -3951.734007 -42.609893
-897.309085 -3953.559814 -42.349927
-896.535234 -3955.385621 -42.089961
-895.761382 -3957.211428 -41.829995
-894.987530 -3959.037235 -41.570029
-894.213678 -3960.863042 -41.310064
-893.439826 -3962.688849 -41.050098
-892.665974 -3964.514656 -40.790132
-891.892122 -3966.340462 -40.530166
-891.118270 -3968.166269 -40.270200
-890.344418 -3969.992076 -40.010234
-889.570566 -3971.817883 -39.750268
-888.796714 -3973.643690 -39.490302
-888.022862 -3975.469497 -39.230337
-887.249010 -3977.295304 -38.970371
-886.475158 -3979.121111 -38.710405
-885.701306 -3980.946918 -38.450439
-884.927454 -3982.772725 -38.190473
-884.153602 -3984.598532 -37.930507
-883.379751 -3986.424339 -37.670541
-882.605899 -3988.250146 -37.410575
-881.832047 -3990.075952 -37.150609
-881.058195 -3991.901759 -36.890644
-880.284343 -3993.727566 -36.630678
-879.510491 -3995.553373 -36.370712
-878.736639 -3997.379180 -36.110746
-877.962787 -3999.204987 -35.850780
-877.188935 -4001.030794 -35.590814
-876.415083 -4002.856601 -35.330848
-875.641231 -4004.682408 -35.070882
-874.867379 -4006.508215 -34.810916
-874.093527 -4008.334022 -34.550951
-873.319675 -4010.159829 -34.290985
-872.545823 -4011.985635 -34.031019
-871.771971 -4013.811442 -33.771053
-870.998119 -4015.637249 -33.511087
-870.224268 -4017.463056 -33.251121
-869.450416 -4019.288863 -32.991155
-868.676564 -4021.114670 -32.731189
-867.902712 -4022.940477 -32.471223
-866.500000 -4026.250000 -32.000000
-866.500000 -4026.250000 -32.000000
-866.500000 -4027.144427 -30.211146
-866.500000 -4028.038854 -28.422291
-866.500000 -4028.933282 -26.633437
-866.500000 -4029.827709 -24.844582
-866.500000 -4030.722136 -23.055728
-866.500000 -4031.616563 -21.266874
-866.500000 -4032.510990 -19.478019
-866.500000 -4033.405418 -17.689165
-866.500000 -4034.299845 -15.900311
-866.500000 -4035.194272 -14.111456
-866.500000 -4036.088699 -12.322602
-866.500000 -4036.983126 -10.533747
-866.500000 -4037.877553 -8.744893
-866.500000 -4038.771981 -6.956039
-866.500000 -4039.666408 -5.167184
-866.500000 -4040.560835 -3.378330
-866.500000 -4042.250000 0.000000
-866.500000 -4042.250000 0.000000
-866.500000 -4042.250000 2.000000
-866.500000 -4042.250000 4.000000
-866.500000 -4042.250000 6.000000
-866.500000 -4042.250000 8.000000
-866.500000 -4042.250000 10.000000
-866.500000 -4042.250000 12.000000
-866.500000 -4042.250000 14.000000
-866.500000 -4042.250000 16.000000
-866.500000 -4042.250000 18.000000
-866.500000 -4042.250000 20.000000
-866.500000 -4042.250000 22.000000
-866.500000 -4042.250000 24.000000
-866.500000 -4042.250000 26.000000
-866.500000 -4042.250000 28.000000
-866.500000 -4042.250000 30.000000
-866.500000 -4042.250000 32.000000
-866.500000 -4042.250000 34.000000
-866.500000 -4042.250000 36.000000
-866.500000 -4042.250000 38.000000
-866.500000 -4042.250000 40.000000
-866.500000 -4042.250000 42.000000
-866.500000 -4042.250000 44.000000
-866.500000 -4042.250000 46.000000
-866.500000 -4042.250000 48.000000
-866.500000 -4042.250000 50.000000
-866.500000 -4042.250000 52.000000
-866.500000 -4042.250000 54.000000
-866.500000 -4042.250000 56.000000
-866.500000 -4042.250000 58.000000
-866.500000 -4042.250000 60.000000
-866.500000 -4042.250000 62.000000
-866.500000 -4042.250000 64.000000
-866.500000 -4042.250000 66.000000
-866.500000 -4042.250000 68.000000
-866.500000 -4042.250000 70.000000
-866.500000 -4042.250000 72.000000
-866.500000 -4042.250000 74.000000
-866.500000 -4042.250000 76.000000
-866.500000 -4042.250000 78.000000
-866.500000 -4042.250000 80.000000
-866.500000 -4042.250000 82.000000
-866.500000 -4042.250000 84.000000
-866.500000 -4042.250000 86.000000
-866.500000 -4042.250000 88.000000
-866.500000 -4042.250000 90.000000
-866.500000 -4042.250000 92.000000
-866.500000 -4042.250000 94.000000
-866.500000 -4042.250000 96.000000
-866.500000 -4042.250000 98.000000
-866.500000 -4042.250000 100.000000
-866.500000 -4042.250000 102.000000
