-131.500000 -588.000000 -543.500000
-131.500000 -588.000000 -543.500000
-133.496949 -587.889570 -543.500000
-135.493898 -587.779139 -543.500000
-137.490847 -587.668709 -543.500000
-139.487796 -587.558279 -543.500000
-141.484745 -587.447848 -543.500000
-143.481694 -587.337418 -543.500000
-145.478643 -587.226988 -543.500000
-147.475592 -587.116557 -543.500000
-149.472541 -587.006127 -543.500000
-151.469490 -586.895696 -543.500000
-153.466439 -586.785266 -543.500000
-155.463387 -586.674836 -543.500000
-157.460336 -586.564405 -543.500000
-159.457285 -586.453975 -543.500000
-161.454234 -586.343545 -543.500000
-163.451183 -586.233114 -543.500000
-165.448132 -586.122684 -543.500000
-167.445081 -586.012254 -543.500000
-169.442030 -585.901823 -543.500000
-171.438979 -585.791393 -543.500000
-173.435928 -585.680963 -543.500000
-175.432877 -585.570532 -543.500000
-177.429826 -585.460102 -543.500000
-179.426775 -585.349671 -543.500000
-181.423724 -585.239241 -543.500000
-183.420673 -585.128811 -543.500000
-185.417622 -585.018380 -543.500000
-187.414571 -584.907950 -543.500000
-189.411520 -584.797520 -543.500000
-191.408469 -584.687089 -543.500000
-193.405418 -584.576659 -543.500000
-195.402367 -584.466229 -543.500000
-197.399316 -584.355798 -543.500000
-199.396265 -584.245368 -543.500000
-201.393213 -584.134938 -543.500000
-203.390162 -584.024507 -543.500000
-205.387111 -583.914077 -543.500000
-207.384060 -583.803646 -543.500000
-209.381009 -583.693216 -543.500000
-211.377958 -583.582786 -543.500000
-213.374907 -583.472355 -543.500000
-215.371856 -583.361925 -543.500000
-217.368805 -583.251495 -543.500000
-219.365754 -583.141064 -543.500000
-221.362703 -583.030634 -543.500000
-223.359652 -582.920204 -543.500000
-225.356601 -582.809773 -543.500000
-227.353550 -582.699343 -543.500000
-229.350499 -582.588913 -543.500000
-231.347448 -582.478482 -543.500000
-233.344397 -582.368052 -543.500000
-235.341346 -582.257621 -543.500000
-237.338295 -582.147191 -543.500000
-240.000000 -582.000000 -543.500000
-240.000000 -582.000000 -543.500000
-240.326327 -582.244745 -541.542039
-240.652654 -582.489490 -539.584078
-240.978980 -582.734235 -537.626117
-241.305307 -582.978980 -535.668157
-241.631634 -583.223726 -533.710196
-241.957961 -583.468471 -531.752235
-242.284288 -583.713216 -529.794274
-242.610614 -583.957961 -527.836313
-242.936941 -584.202706 -525.878352
-243.263268 -584.447451 -523.920392
-243.589595 -584.692196 -521.962431
-243.915922 -584.936941 -520.004470
-244.242248 -585.181686 -518.046509
-244.568575 -585.426431 -516.088548
-244.894902 -585.671177 -514.130587
-245.221229 -585.915922 -512.172627
-245.547556 -586.160667 -510.214666
-245.873883 -586.405412 -508.256705
-246.200209 -586.650157 -506.298744
-246.526536 -586.894902 -504.340783
-246.852863 -587.139647 -502.382822
-247.179190 -587.384392 -500.424862
-247.505517 -587.629137 -498.466901
-248.000000 -588.000000 -495.500000
-248.000000 -588.000000 -495.500000
-247.401174 -589.774301 -496.202327
-246.802347 -591.548601 -496.904655
-246.203521 -593.322902 -497.606982
-245.604694 -595.097203 -498.309309
-245.005868 -596.871504 -499.011637
-244.407041 -598.645804 -499.713964
-243.808215 -600.420105 -500.416292
-243.209388 -602.194406 -501.118619
-242.610562 -603.968707 -501.820946
-242.011735 -605.743007 -502.523274
-241.412909 -607.517308 -503.225601
-240.814082 -609.291609 -503.927928
-240.215256 -611.065910 -504.630256
-239.616429 -612.840210 -505.332583
-239.017603 -614.614511 -506.034911
-238.418776 -616.388812 -506.737238
-237.819950 -618.163112 -507.439565
-237.221123 -619.937413 -508.141893
-236.622297 -621.711714 -508.844220
-236.023470 -623.486015 -509.546547
-235.424644 -625.260315 -510.248875
-234.825817 -627.034616 -510.951202
-234.226991 -628.808917 -511.653530
-233.628164 -630.583218 -512.355857
-233.029338 -632.357518 -513.058184
-232.430511 -634.131819 -513.760512
-231.831685 -635.906120 -514.462839
-231.232858 -637.680420 -515.165166
-230.634032 -639.454721 -515.867494
-230.035205 -641.229022 -516.569821
-229.436379 -643.003323 -517.272149
-228.837552 -644.777623 -517.974476
-228.238726 -646.551924 -518.676803
-227.639899 -648.326225 -519.379131
-227.041073 -650.100526 -520.081458
-226.442246 -651.874826 -520.783785
-225.843420 -653.649127 -521.486113
-225.244593 -655.423428 -522.188440
-224.645767 -657.197729 -522.890768
-224.046940 -658.972029 -523.593095
-223.448114 -660.746330 -524.295422
-222.849287 -662.520631 -524.997750
-222.250461 -664.294931 -525.700077
-221.651634 -666.069232 -526.402404
-221.052808 -667.843533 -527.104732
-220.453981 -669.617834 -527.807059
-219.855155 -671.392134 -528.509387
-219.256328 -673.166435 -529.211714
-218.657502 -674.940736 -529.914041
-218.058675 -676.715037 -530.616369
-217.459849 -678.489337 -531.318696
-216.861022 -680.263638 -532.021023
-216.262196 -682.037939 -532.723351
-215.663369 -683.812240 -533.425678
-215.064543 -685.586540 -534.128006
-214.465716 -687.360841 -534.830333
-213.866890 -689.135142 -535.532660
-213.268063 -690.909442 -536.234988
-212.669237 -692.683743 -536.937315
-212.070410 -694.458044 -537.639642
-211.471584 -696.232345 -538.341970
-210.872757 -698.006645 -539.044297
-210.273931 -699.780946 -539.746625
-209.675104 -701.555247 -540.448952
-209.076278 -703.329548 -541.151279
-208.477451 -705.103848 -541.853607
-207.500000 -708.000000 -543.000000
-207.500000 -708.000000 -543.000000
-207.371236 -709.995834 -543.008048
-207.242473 -711.991669 -543.016095
-207.113709 -713.987503 -543.024143
-206.984946 -715.983338 -543.032191
-206.856182 -717.979172 -543.040239
-206.727419 -719.975007 -543.048286
-206.598655 -721.970841 -543.056334
-206.469892 -723.966676 -543.064382
-206.341128 -725.962510 -543.072429
-206.212365 -727.958345 -543.080477
-206.083601 -729.954179 -543.088525
-205.954838 -731.950014 -543.096573
-205.826074 -733.945848 -543.104620
-205.697311 -735.941682 -543.112668
-205.568547 -737.937517 -543.120716
-205.439784 -739.933351 -543.128764
-205.311020 -741.929186 -543.136811
-205.182257 -743.925020 -543.144859
-205.053493 -745.920855 -543.152907
-204.924730 -747.916689 -543.160954
-204.795966 -749.912524 -543.169002
-204.667203 -751.908358 -543.177050
-204.538439 -753.904193 -543.185098
-204.409676 -755.900027 -543.193145
-204.280912 -757.895862 -543.201193
-204.152149 -759.891696 -543.209241
-204.023385 -761.887530 -543.217288
-203.894622 -763.883365 -543.225336
-203.765858 -765.879199 -543.233384
-203.637095 -767.875034 -543.241432
-203.508331 -769.870868 -543.249479
-203.379568 -771.866703 -543.257527
-203.250804 -773.862537 -543.265575
-203.122041 -775.858372 -543.273622
-202.993277 -777.854206 -543.281670
-202.864514 -779.850041 -543.289718
-202.735750 -781.845875 -543.297766
-202.606986 -783.841709 -543.305813
-202.478223 -785.837544 -543.313861
-202.349459 -787.833378 -543.321909
-202.220696 -789.829213 -543.329957
-202.091932 -791.825047 -543.338004
-201.963169 -793.820882 -543.346052
-201.834405 -795.816716 -543.354100
-201.705642 -797.812551 -543.362147
-201.576878 -799.808385 -543.370195
-201.448115 -801.804220 -543.378243
-201.319351 -803.800054 -543.386291
-201.190588 -805.795889 -543.394338
-201.061824 -807.791723 -543.402386
-200.933061 -809.787557 -543.410434
-200.804297 -811.783392 -543.418481
-200.675534 -813.779226 -543.426529
-200.546770 -815.775061 -543.434577
-200.418007 -817.770895 -543.442625
-200.289243 -819.766730 -543.450672
-200.160480 -821.762564 -543.458720
-200.031716 -823.758399 -543.466768
-199.902953 -825.754233 -543.474815
-199.774189 -827.750068 -543.482863
-199.645426 -829.745902 -543.490911
-199.500000 -832.000000 -543.500000
-199.500000 -832.000000 -543.500000
-201.469949 -832.345101 -543.514379
-203.439898 -832.690201 -543.528758
-205.409847 -833.035302 -543.543138
-207.379796 -833.380402 -543.557517
-209.349745 -833.725503 -543.571896
-211.319694 -834.070603 -543.586275
-213.289643 -834.415704 -543.600654
-215.259592 -834.760804 -543.615034
-217.229541 -835.105905 -543.629413
-219.199489 -835.451005 -543.643792
-221.169438 -835.796106 -543.658171
-223.139387 -836.141207 -543.672550
-225.109336 -836.486307 -543.686929
-227.079285 -836.831408 -543.701309
-229.049234 -837.176508 -543.715688
-231.019183 -837.521609 -543.730067
-232.989132 -837.866709 -543.744446
-234.959081 -838.211810 -543.758825
-236.929030 -838.556910 -543.773205
-238.898979 -838.902011 -543.787584
-240.868928 -839.247111 -543.801963
-242.838877 -839.592212 -543.816342
-244.808826 -839.937313 -543.830721
-246.778775 -840.282413 -543.845101
-248.748724 -840.627514 -543.859480
-250.718673 -840.972614 -543.873859
-252.688622 -841.317715 -543.888238
-254.658571 -841.662815 -543.902617
-256.628519 -842.007916 -543.916996
-258.598468 -842.353016 -543.931376
-260.568417 -842.698117 -543.945755
-262.538366 -843.043217 -543.960134
-264.508315 -843.388318 -543.974513
-268.000000 -844.000000 -544.000000
-268.000000 -844.000000 -544.000000
-267.960022 -842.001110 -544.053304
-267.920044 -840.002220 -544.106607
-267.880067 -838.003331 -544.159911
-267.840089 -836.004441 -544.213215
-267.800111 -834.005551 -544.266519
-267.760133 -832.006661 -544.319822
-267.720155 -830.007771 -544.373126
-267.680178 -828.008881 -544.426430
-267.640200 -826.009992 -544.479734
-267.600222 -824.011102 -544.533037
-267.560244 -822.012212 -544.586341
-267.520266 -820.013322 -544.639645
-267.480289 -818.014432 -544.692948
-267.440311 -816.015543 -544.746252
-267.400333 -814.016653 -544.799556
-267.360355 -812.017763 -544.852860
-267.320377 -810.018873 -544.906163
-267.280400 -808.019983 -544.959467
-267.240422 -806.021094 -545.012771
-267.200444 -804.022204 -545.066075
-267.160466 -802.023314 -545.119378
-267.120488 -800.024424 -545.172682
-267.080511 -798.025534 -545.225986
-267.040533 -796.026644 -545.279289
-267.000555 -794.027755 -545.332593
-266.960577 -792.028865 -545.385897
-266.920600 -790.029975 -545.439201
-266.880622 -788.031085 -545.492504
-266.840644 -786.032195 -545.545808
-266.800666 -784.033306 -545.599112
-266.760688 -782.034416 -545.652416
-266.720711 -780.035526 -545.705719
-266.680733 -778.036636 -545.759023
-266.640755 -776.037746 -545.812327
-266.600777 -774.038857 -545.865630
-266.560799 -772.039967 -545.918934
-266.520822 -770.041077 -545.972238
-266.480844 -768.042187 -546.025542
-266.440866 -766.043297 -546.078845
-266.400888 -764.044407 -546.132149
-266.360910 -762.045518 -546.185453
-266.320933 -760.046628 -546.238757
-266.280955 -758.047738 -546.292060
-266.240977 -756.048848 -546.345364
-266.200999 -754.049958 -546.398668
-266.161021 -752.051069 -546.451972
-266.121044 -750.052179 -546.505275
-266.081066 -748.053289 -546.558579
-266.041088 -746.054399 -546.611883
-266.001110 -744.055509 -546.665186
-265.961132 -742.056619 -546.718490
-265.921155 -740.057730 -546.771794
-265.881177 -738.058840 -546.825098
-265.841199 -736.059950 -546.878401
-265.801221 -734.061060 -546.931705
-265.761243 -732.062170 -546.985009
-265.721266 -730.063281 -547.038313
-265.681288 -728.064391 -547.091616
-265.641310 -726.065501 -547.144920
-265.601332 -724.066611 -547.198224
-265.561354 -722.067721 -547.251527
-265.521377 -720.068832 -547.304831
-265.481399 -718.069942 -547.358135
-265.441421 -716.071052 -547.411439
-265.401443 -714.072162 -547.464742
-265.361465 -712.073272 -547.518046
-265.321488 -710.074382 -547.571350
-265.281510 -708.075493 -547.624654
-265.241532 -706.076603 -547.677957
-265.201554 -704.077713 -547.731261
-265.161576 -702.078823 -547.784565
-265.121599 -700.079933 -547.837868
-265.081621 -698.081044 -547.891172
-265.041643 -696.082154 -547.944476
-265.001665 -694.083264 -547.997780
-264.961687 -692.084374 -548.051083
-264.921710 -690.085484 -548.104387
-264.881732 -688.086595 -548.157691
-264.841754 -686.087705 -548.210995
-264.801776 -684.088815 -548.264298
-264.761799 -682.089925 -548.317602
-264.721821 -680.091035 -548.370906
-264.681843 -678.092145 -548.424209
-264.641865 -676.093256 -548.477513
-264.601887 -674.094366 -548.530817
-264.561910 -672.095476 -548.584121
-264.521932 -670.096586 -548.637424
-264.481954 -668.097696 -548.690728
-264.441976 -666.098807 -548.744032
-264.401998 -664.099917 -548.797336
-264.362021 -662.101027 -548.850639
-264.322043 -660.102137 -548.903943
-264.282065 -658.103247 -548.957247
-264.242087 -656.104357 -549.010550
-264.202109 -654.105468 -549.063854
-264.162132 -652.106578 -549.117158
-264.122154 -650.107688 -549.170462
-264.082176 -648.108798 -549.223765
-264.042198 -646.109908 -549.277069
-264.002220 -644.111019 -549.330373
-263.962243 -642.112129 -549.383677
-263.922265 -640.113239 -549.436980
-263.882287 -638.114349 -549.490284
-263.842309 -636.115459 -549.543588
-263.802331 -634.116570 -549.596891
-263.762354 -632.117680 -549.650195
-263.722376 -630.118790 -549.703499
-263.682398 -628.119900 -549.756803
-263.642420 -626.121010 -549.810106
-263.602442 -624.122120 -549.863410
-263.562465 -622.123231 -549.916714
-263.522487 -620.124341 -549.970018
-263.482509 -618.125451 -550.023321
-263.442531 -616.126561 -550.076625
-263.402553 -614.127671 -550.129929
-263.362576 -612.128782 -550.183232
-263.322598 -610.129892 -550.236536
-263.282620 -608.131002 -550.289840
-263.242642 -606.132112 -550.343144
-263.202664 -604.133222 -550.396447
-263.162687 -602.134333 -550.449751
-263.122709 -600.135443 -550.503055
-263.082731 -598.136553 -550.556359
-263.042753 -596.137663 -550.609662
-263.002775 -594.138773 -550.662966
-262.962798 -592.139883 -550.716270
-262.922820 -590.140994 -550.769574
-262.882842 -588.142104 -550.822877
-262.842864 -586.143214 -550.876181
-262.802886 -584.144324 -550.929485
-262.762909 -582.145434 -550.982788
-262.722931 -580.146545 -551.036092
-262.682953 -578.147655 -551.089396
-262.642975 -576.148765 -551.142700
-262.602998 -574.149875 -551.196003
-262.563020 -572.150985 -551.249307
-262.523042 -570.152095 -551.302611
-262.483064 -568.153206 -551.355915
-262.443086 -566.154316 -551.409218
-262.403109 -564.155426 -551.462522
-262.363131 -562.156536 -551.515826
-262.323153 -560.157646 -551.569129
-262.283175 -558.158757 -551.622433
-262.243197 -556.159867 -551.675737
-262.203220 -554.160977 -551.729041
-262.163242 -552.162087 -551.782344
-262.123264 -550.163197 -551.835648
-262.083286 -548.164308 -551.888952
-262.043308 -546.165418 -551.942256
-262.003331 -544.166528 -551.995559
-261.963353 -542.167638 -552.048863
-261.923375 -540.168748 -552.102167
-261.883397 -538.169858 -552.155470
-261.843419 -536.170969 -552.208774
-261.803442 -534.172079 -552.262078
-261.763464 -532.173189 -552.315382
-261.723486 -530.174299 -552.368685
-261.683508 -528.175409 -552.421989
-261.643530 -526.176520 -552.475293
-261.603553 -524.177630 -552.528597
-261.563575 -522.178740 -552.581900
-261.523597 -520.179850 -552.635204
-261.483619 -518.180960 -552.688508
-261.443641 -516.182071 -552.741811
-261.403664 -514.183181 -552.795115
-261.363686 -512.184291 -552.848419
-261.323708 -510.185401 -552.901723
-261.283730 -508.186511 -552.955026
-261.243752 -506.187621 -553.008330
-261.203775 -504.188732 -553.061634
-261.163797 -502.189842 -553.114938
-261.123819 -500.190952 -553.168241
-261.083841 -498.192062 -553.221545
-261.043863 -496.193172 -553.274849
-261.003886 -494.194283 -553.328152
-260.963908 -492.195393 -553.381456
-260.923930 -490.196503 -553.434760
-260.883952 -488.197613 -553.488064
-260.843974 -486.198723 -553.541367
-260.803997 -484.199833 -553.594671
-260.764019 -482.200944 -553.647975
-260.724041 -480.202054 -553.701279
-260.684063 -478.203164 -553.754582
-260.644085 -476.204274 -553.807886
-260.604108 -474.205384 -553.861190
-260.564130 -472.206495 -553.914493
-260.524152 -470.207605 -553.967797
-260.484174 -468.208715 -554.021101
-260.444197 -466.209825 -554.074405
-260.404219 -464.210935 -554.127708
-260.364241 -462.212046 -554.181012
-260.324263 -460.213156 -554.234316
-260.284285 -458.214266 -554.287620
-260.244308 -456.215376 -554.340923
-260.204330 -454.216486 -554.394227
-260.164352 -452.217596 -554.447531
-260.124374 -450.218707 -554.500834
-260.084396 -448.219817 -554.554138
-260.044419 -446.220927 -554.607442
-260.004441 -444.222037 -554.660746
-259.964463 -442.223147 -554.714049
-259.924485 -440.224258 -554.767353
-259.884507 -438.225368 -554.820657
-259.844530 -436.226478 -554.873961
-259.804552 -434.227588 -554.927264
-259.764574 -432.228698 -554.980568
-259.724596 -430.229809 -555.033872
-259.684618 -428.230919 -555.087176
-259.644641 -426.232029 -555.140479
-259.604663 -424.233139 -555.193783
-259.564685 -422.234249 -555.247087
-259.524707 -420.235359 -555.300390
-259.484729 -418.236470 -555.353694
-259.444752 -416.237580 -555.406998
-259.404774 -414.238690 -555.460302
-259.364796 -412.239800 -555.513605
-259.324818 -410.240910 -555.566909
-259.284840 -408.242021 -555.620213
-259.244863 -406.243131 -555.673517
-259.204885 -404.244241 -555.726820
-259.164907 -402.245351 -555.780124
-259.124929 -400.246461 -555.833428
-259.084951 -398.247571 -555.886731
-259.044974 -396.248682 -555.940035
-259.004996 -394.249792 -555.993339
-258.965018 -392.250902 -556.046643
-258.925040 -390.252012 -556.099946
-258.885062 -388.253122 -556.153250
-258.845085 -386.254233 -556.206554
-258.805107 -384.255343 -556.259858
-258.765129 -382.256453 -556.313161
-258.725151 -380.257563 -556.366465
-258.685173 -378.258673 -556.419769
-258.645196 -376.259784 -556.473072
-258.605218 -374.260894 -556.526376
-258.565240 -372.262004 -556.579680
-258.525262 -370.263114 -556.632984
-258.485284 -368.264224 -556.686287
-258.445307 -366.265334 -556.739591
-258.405329 -364.266445 -556.792895
-258.365351 -362.267555 -556.846199
-258.325373 -360.268665 -556.899502
-258.285396 -358.269775 -556.952806
-258.245418 -356.270885 -557.006110
-258.205440 -354.271996 -557.059413
-258.165462 -352.273106 -557.112717
-258.125484 -350.274216 -557.166021
-258.085507 -348.275326 -557.219325
-258.045529 -346.276436 -557.272628
-258.005551 -344.277547 -557.325932
-257.965573 -342.278657 -557.379236
-257.925595 -340.279767 -557.432540
-257.885618 -338.280877 -557.485843
-257.845640 -336.281987 -557.539147
-257.805662 -334.283097 -557.592451
-257.765684 -332.284208 -557.645754
-257.725706 -330.285318 -557.699058
-257.685729 -328.286428 -557.752362
-257.645751 -326.287538 -557.805666
-257.605773 -324.288648 -557.858969
-257.565795 -322.289759 -557.912273
-257.525817 -320.290869 -557.965577
-257.485840 -318.291979 -558.018881
-257.445862 -316.293089 -558.072184
-257.405884 -314.294199 -558.125488
-257.365906 -312.295309 -558.178792
-257.325928 -310.296420 -558.232095
-257.285951 -308.297530 -558.285399
-257.245973 -306.298640 -558.338703
-257.205995 -304.299750 -558.392007
-257.166017 -302.300860 -558.445310
-257.126039 -300.301971 -558.498614
-257.086062 -298.303081 -558.551918
-257.046084 -296.304191 -558.605222
-257.006106 -294.305301 -558.658525
-256.966128 -292.306411 -558.711829
-256.926150 -290.307522 -558.765133
-256.886173 -288.308632 -558.818436
-256.846195 -286.309742 -558.871740
-256.806217 -284.310852 -558.925044
-256.766239 -282.311962 -558.978348
-256.726261 -280.313072 -559.031651
-256.686284 -278.314183 -559.084955
-256.646306 -276.315293 -559.138259
-256.606328 -274.316403 -559.191563
-256.566350 -272.317513 -559.244866
-256.526372 -270.318623 -559.298170
-256.486395 -268.319734 -559.351474
-256.446417 -266.320844 -559.404777
-256.406439 -264.321954 -559.458081
-256.366461 -262.323064 -559.511385
-256.326483 -260.324174 -559.564689
-256.286506 -258.325285 -559.617992
-256.246528 -256.326395 -559.671296
-256.206550 -254.327505 -559.724600
-256.166572 -252.328615 -559.777904
-256.126595 -250.329725 -559.831207
-256.086617 -248.330835 -559.884511
-256.046639 -246.331946 -559.937815
-256.000000 -244.000000 -560.000000
-256.000000 -244.000000 -560.000000
-254.003079 -244.000000 -560.110940
-252.006159 -244.000000 -560.221880
-250.009238 -244.000000 -560.332820
-248.012317 -244.000000 -560.443760
-246.015396 -244.000000 -560.554700
-244.018476 -244.000000 -560.665640
-242.021555 -244.000000 -560.776580
-240.024634 -244.000000 -560.887520
-238.027714 -244.000000 -560.998460
-236.030793 -244.000000 -561.109400
-234.033872 -244.000000 -561.220340
-232.036952 -244.000000 -561.331280
-230.040031 -244.000000 -561.442221
-228.043110 -244.000000 -561.553161
-226.046189 -244.000000 -561.664101
-224.049269 -244.000000 -561.775041
-222.052348 -244.000000 -561.885981
-220.055427 -244.000000 -561.996921
-218.058507 -244.000000 -562.107861
-216.061586 -244.000000 -562.218801
-214.064665 -244.000000 -562.329741
-212.067744 -244.000000 -562.440681
-210.070824 -244.000000 -562.551621
-208.073903 -244.000000 -562.662561
-206.076982 -244.000000 -562.773501
-204.080062 -244.000000 -562.884441
-202.083141 -244.000000 -562.995381
-200.086220 -244.000000 -563.106321
-198.089300 -244.000000 -563.217261
-196.092379 -244.000000 -563.328201
-194.095458 -244.000000 -563.439141
-192.098537 -244.000000 -563.550081
-190.101617 -244.000000 -563.661021
-188.104696 -244.000000 -563.771961
-186.107775 -244.000000 -563.882901
-184.110855 -244.000000 -563.993841
-182.113934 -244.000000 -564.104781
-180.117013 -244.000000 -564.215721
-178.120092 -244.000000 -564.326662
-176.123172 -244.000000 -564.437602
-174.126251 -244.000000 -564.548542
-172.129330 -244.000000 -564.659482
-170.132410 -244.000000 -564.770422
-168.135489 -244.000000 -564.881362
-166.138568 -244.000000 -564.992302
-164.141648 -244.000000 -565.103242
-162.144727 -244.000000 -565.214182
-160.147806 -244.000000 -565.325122
-158.150885 -244.000000 -565.436062
-156.153965 -244.000000 -565.547002
-154.157044 -244.000000 -565.657942
-152.160123 -244.000000 -565.768882
-150.163203 -244.000000 -565.879822
-148.166282 -244.000000 -565.990762
-146.169361 -244.000000 -566.101702
-144.172440 -244.000000 -566.212642
-142.175520 -244.000000 -566.323582
-140.178599 -244.000000 -566.434522
-138.181678 -244.000000 -566.545462
-136.184758 -244.000000 -566.656402
-134.187837 -244.000000 -566.767342
-132.190916 -244.000000 -566.878282
-130.193995 -244.000000 -566.989222
-128.197075 -244.000000 -567.100163
-126.200154 -244.000000 -567.211103
-124.203233 -244.000000 -567.322043
-122.206313 -244.000000 -567.432983
-120.209392 -244.000000 -567.543923
-118.212471 -244.000000 -567.654863
-116.215551 -244.000000 -567.765803
-114.218630 -244.000000 -567.876743
-112.221709 -244.000000 -567.987683
-110.224788 -244.000000 -568.098623
-108.227868 -244.000000 -568.209563
-106.230947 -244.000000 -568.320503
-104.234026 -244.000000 -568.431443
-102.237106 -244.000000 -568.542383
-100.240185 -244.000000 -568.653323
-98.243264 -244.000000 -568.764263
-96.246343 -244.000000 -568.875203
-94.249423 -244.000000 -568.986143
-92.252502 -244.000000 -569.097083
-90.255581 -244.000000 -569.208023
-88.258661 -244.000000 -569.318963
-86.261740 -244.000000 -569.429903
-84.264819 -244.000000 -569.540843
-82.267899 -244.000000 -569.651783
-80.270978 -244.000000 -569.762723
-78.274057 -244.000000 -569.873663
-76.277136 -244.000000 -569.984604
-74.280216 -244.000000 -570.095544
-72.283295 -244.000000 -570.206484
-70.286374 -244.000000 -570.317424
-68.289454 -244.000000 -570.428364
-66.292533 -244.000000 -570.539304
-64.295612 -244.000000 -570.650244
-62.298691 -244.000000 -570.761184
-60.301771 -244.000000 -570.872124
-58.304850 -244.000000 -570.983064
-56.307929 -244.000000 -571.094004
-54.311009 -244.000000 -571.204944
-52.314088 -244.000000 -571.315884
-50.317167 -244.000000 -571.426824
-48.320247 -244.000000 -571.537764
-46.323326 -244.000000 -571.648704
-44.326405 -244.000000 -571.759644
-42.329484 -244.000000 -571.870584
-40.332564 -244.000000 -571.981524
-38.335643 -244.000000 -572.092464
-36.338722 -244.000000 -572.203404
-34.341802 -244.000000 -572.314344
-32.344881 -244.000000 -572.425284
-30.347960 -244.000000 -572.536224
-28.351039 -244.000000 -572.647164
-26.354119 -244.000000 -572.758105
-24.357198 -244.000000 -572.869045
-22.360277 -244.000000 -572.979985
-20.363357 -244.000000 -573.090925
-18.366436 -244.000000 -573.201865
-16.369515 -244.000000 -573.312805
-14.372595 -244.000000 -573.423745
-12.375674 -244.000000 -573.534685
-10.378753 -244.000000 -573.645625
-8.381832 -244.000000 -573.756565
-6.384912 -244.000000 -573.867505
-4.387991 -244.000000 -573.978445
-2.391070 -244.000000 -574.089385
-0.394150 -244.000000 -574.200325
1.602771 -244.000000 -574.311265
3.599692 -244.000000 -574.422205
5.596613 -244.000000 -574.533145
7.593533 -244.000000 -574.644085
9.590454 -244.000000 -574.755025
11.587375 -244.000000 -574.865965
13.584295 -244.000000 -574.976905
15.581216 -244.000000 -575.087845
17.578137 -244.000000 -575.198785
19.575057 -244.000000 -575.309725
21.571978 -244.000000 -575.420665
23.568899 -244.000000 -575.531605
25.565820 -244.000000 -575.642546
27.562740 -244.000000 -575.753486
29.559661 -244.000000 -575.864426
32.000000 -244.000000 -576.000000
32.000000 -244.000000 -576.000000
32.000000 -246.000000 -576.000000
32.000000 -248.000000 -576.000000
32.000000 -250.000000 -576.000000
32.000000 -252.000000 -576.000000
32.000000 -254.000000 -576.000000
32.000000 -256.000000 -576.000000
32.000000 -258.000000 -576.000000
32.000000 -260.000000 -576.000000
32.000000 -262.000000 -576.000000
32.000000 -264.000000 -576.000000
32.000000 -266.000000 -576.000000
32.000000 -268.000000 -576.000000
32.000000 -270.000000 -576.000000
32.000000 -272.000000 -576.000000
32.000000 -274.000000 -576.000000
32.000000 -276.000000 -576.000000
32.000000 -278.000000 -576.000000
32.000000 -280.000000 -576.000000
32.000000 -282.000000 -576.000000
32.000000 -284.000000 -576.000000
32.000000 -286.000000 -576.000000
32.000000 -288.000000 -576.000000
32.000000 -290.000000 -576.000000
32.000000 -292.000000 -576.000000
32.000000 -294.000000 -576.000000
32.000000 -296.000000 -576.000000
32.000000 -298.000000 -576.000000
32.000000 -300.000000 -576.000000
32.000000 -302.000000 -576.000000
32.000000 -304.000000 -576.000000
32.000000 -306.000000 -576.000000
32.000000 -308.000000 -576.000000
32.000000 -310.000000 -576.000000
32.000000 -312.000000 -576.000000
32.000000 -314.000000 -576.000000
32.000000 -316.000000 -576.000000
32.000000 -318.000000 -576.000000
32.000000 -320.000000 -576.000000
32.000000 -322.000000 -576.000000
32.000000 -324.000000 -576.000000
32.000000 -326.000000 -576.000000
32.000000 -328.000000 -576.000000
32.000000 -330.000000 -576.000000
32.000000 -332.000000 -576.000000
32.000000 -334.000000 -576.000000
32.000000 -336.000000 -576.000000
32.000000 -338.000000 -576.000000
32.000000 -340.000000 -576.000000
32.000000 -342.000000 -576.000000
32.000000 -344.000000 -576.000000
32.000000 -346.000000 -576.000000
32.000000 -348.000000 -576.000000
32.000000 -350.000000 -576.000000
32.000000 -352.000000 -576.000000
32.000000 -354.000000 -576.000000
32.000000 -356.000000 -576.000000
32.000000 -358.000000 -576.000000
32.000000 -360.000000 -576.000000
32.000000 -362.000000 -576.000000
32.000000 -364.000000 -576.000000
32.000000 -366.000000 -576.000000
32.000000 -368.000000 -576.000000
32.000000 -370.000000 -576.000000
32.000000 -372.000000 -576.000000
32.000000 -374.000000 -576.000000
32.000000 -376.000000 -576.000000
32.000000 -378.000000 -576.000000
32.000000 -380.000000 -576.000000
32.000000 -382.000000 -576.000000
32.000000 -384.000000 -576.000000
32.000000 -386.000000 -576.000000
32.000000 -388.000000 -576.000000
32.000000 -390.000000 -576.000000
32.000000 -392.000000 -576.000000
32.000000 -394.000000 -576.000000
32.000000 -396.000000 -576.000000
32.000000 -398.000000 -576.000000
32.000000 -400.000000 -576.000000
32.000000 -402.000000 -576.000000
32.000000 -404.000000 -576.000000
32.000000 -406.000000 -576.000000
32.000000 -408.000000 -576.000000
32.000000 -410.000000 -576.000000
32.000000 -412.000000 -576.000000
32.000000 -414.000000 -576.000000
32.000000 -416.000000 -576.000000
32.000000 -418.000000 -576.000000
32.000000 -420.000000 -576.000000
32.000000 -422.000000 -576.000000
32.000000 -424.000000 -576.000000
32.000000 -426.000000 -576.000000
32.000000 -428.000000 -576.000000
32.000000 -430.000000 -576.000000
32.000000 -432.000000 -576.000000
32.000000 -434.000000 -576.000000
32.000000 -436.000000 -576.000000
32.000000 -438.000000 -576.000000
32.000000 -440.000000 -576.000000
32.000000 -442.000000 -576.000000
32.000000 -444.000000 -576.000000
32.000000 -446.000000 -576.000000
32.000000 -448.000000 -576.000000
32.000000 -450.000000 -576.000000
32.000000 -452.000000 -576.000000
32.000000 -454.000000 -576.000000
32.000000 -456.000000 -576.000000
32.000000 -458.000000 -576.000000
32.000000 -460.000000 -576.000000
32.000000 -462.000000 -576.000000
32.000000 -464.000000 -576.000000
32.000000 -466.000000 -576.000000
32.000000 -468.000000 -576.000000
32.000000 -470.000000 -576.000000
32.000000 -472.000000 -576.000000
32.000000 -474.000000 -576.000000
32.000000 -476.000000 -576.000000
32.000000 -478.000000 -576.000000
32.000000 -480.000000 -576.000000
32.000000 -482.000000 -576.000000
32.000000 -484.000000 -576.000000
32.000000 -486.000000 -576.000000
32.000000 -488.000000 -576.000000
32.000000 -490.000000 -576.000000
32.000000 -492.000000 -576.000000
32.000000 -494.000000 -576.000000
32.000000 -496.000000 -576.000000
32.000000 -498.000000 -576.000000
32.000000 -500.000000 -576.000000
32.000000 -502.000000 -576.000000
32.000000 -504.000000 -576.000000
32.000000 -506.000000 -576.000000
32.000000 -508.000000 -576.000000
32.000000 -510.000000 -576.000000
32.000000 -512.000000 -576.000000
32.000000 -514.000000 -576.000000
32.000000 -516.000000 -576.000000
32.000000 -518.000000 -576.000000
32.000000 -520.000000 -576.000000
32.000000 -522.000000 -576.000000
32.000000 -524.000000 -576.000000
32.000000 -526.000000 -576.000000
32.000000 -528.000000 -576.000000
32.000000 -530.000000 -576.000000
32.000000 -532.000000 -576.000000
32.000000 -534.000000 -576.000000
32.000000 -536.000000 -576.000000
32.000000 -538.000000 -576.000000
32.000000 -540.000000 -576.000000
32.000000 -542.000000 -576.000000
32.000000 -544.000000 -576.000000
32.000000 -546.000000 -576.000000
32.000000 -548.000000 -576.000000
32.000000 -550.000000 -576.000000
32.000000 -552.000000 -576.000000
32.000000 -554.000000 -576.000000
32.000000 -556.000000 -576.000000
32.000000 -558.000000 -576.000000
32.000000 -560.000000 -576.000000
32.000000 -562.000000 -576.000000
32.000000 -564.000000 -576.000000
32.000000 -566.000000 -576.000000
32.000000 -568.000000 -576.000000
32.000000 -570.000000 -576.000000
32.000000 -572.000000 -576.000000
32.000000 -574.000000 -576.000000
32.000000 -576.000000 -576.000000
32.000000 -578.000000 -576.000000
32.000000 -580.000000 -576.000000
32.000000 -582.000000 -576.000000
32.000000 -584.000000 -576.000000
32.000000 -586.000000 -576.000000
32.000000 -588.000000 -576.000000
32.000000 -590.000000 -576.000000
32.000000 -592.000000 -576.000000
32.000000 -594.000000 -576.000000
32.000000 -596.000000 -576.000000
32.000000 -598.000000 -576.000000
32.000000 -600.000000 -576.000000
32.000000 -602.000000 -576.000000
32.000000 -604.000000 -576.000000
32.000000 -606.000000 -576.000000
32.000000 -608.000000 -576.000000
32.000000 -610.000000 -576.000000
32.000000 -612.000000 -576.000000
32.000000 -614.000000 -576.000000
32.000000 -616.000000 -576.000000
32.000000 -618.000000 -576.000000
32.000000 -620.000000 -576.000000
32.000000 -622.000000 -576.000000
32.000000 -624.000000 -576.000000
32.000000 -626.000000 -576.000000
32.000000 -628.000000 -576.000000
32.000000 -630.000000 -576.000000
32.000000 -632.000000 -576.000000
32.000000 -634.000000 -576.000000
32.000000 -636.000000 -576.000000
32.000000 -638.000000 -576.000000
32.000000 -640.000000 -576.000000
32.000000 -642.000000 -576.000000
32.000000 -644.000000 -576.000000
32.000000 -646.000000 -576.000000
32.000000 -648.000000 -576.000000
32.000000 -650.000000 -576.000000
32.000000 -652.000000 -576.000000
32.000000 -654.000000 -576.000000
32.000000 -656.000000 -576.000000
32.000000 -658.000000 -576.000000
32.000000 -660.000000 -576.000000
32.000000 -662.000000 -576.000000
32.000000 -664.000000 -576.000000
32.000000 -666.000000 -576.000000
32.000000 -668.000000 -576.000000
32.000000 -670.000000 -576.000000
32.000000 -672.000000 -576.000000
32.000000 -674.000000 -576.000000
32.000000 -676.000000 -576.000000
32.000000 -678.000000 -576.000000
32.000000 -680.000000 -576.000000
32.000000 -682.000000 -576.000000
32.000000 -684.000000 -576.000000
32.000000 -686.000000 -576.000000
32.000000 -688.000000 -576.000000
32.000000 -690.000000 -576.000000
32.000000 -692.000000 -576.000000
32.000000 -694.000000 -576.000000
32.000000 -696.000000 -576.000000
32.000000 -698.000000 -576.000000
32.000000 -700.000000 -576.000000
32.000000 -702.000000 -576.000000
32.000000 -704.000000 -576.000000
32.000000 -706.000000 -576.000000
32.000000 -708.000000 -576.000000
32.000000 -710.000000 -576.000000
32.000000 -712.000000 -576.000000
32.000000 -714.000000 -576.000000
32.000000 -716.000000 -576.000000
32.000000 -718.000000 -576.000000
32.000000 -720.000000 -576.000000
32.000000 -722.000000 -576.000000
32.000000 -724.000000 -576.000000
32.000000 -726.000000 -576.000000
32.000000 -728.000000 -576.000000
32.000000 -730.000000 -576.000000
32.000000 -732.000000 -576.000000
32.000000 -734.000000 -576.000000
32.000000 -736.000000 -576.000000
32.000000 -738.000000 -576.000000
32.000000 -740.000000 -576.000000
32.000000 -742.000000 -576.000000
32.000000 -744.000000 -576.000000
32.000000 -746.000000 -576.000000
32.000000 -748.000000 -576.000000
32.000000 -750.000000 -576.000000
32.000000 -752.000000 -576.000000
32.000000 -754.000000 -576.000000
32.000000 -756.000000 -576.000000
32.000000 -758.000000 -576.000000
32.000000 -760.000000 -576.000000
32.000000 -762.000000 -576.000000
32.000000 -764.000000 -576.000000
32.000000 -766.000000 -576.000000
32.000000 -768.000000 -576.000000
32.000000 -770.000000 -576.000000
32.000000 -772.000000 -576.000000
32.000000 -774.000000 -576.000000
32.000000 -776.000000 -576.000000
32.000000 -778.000000 -576.000000
32.000000 -780.000000 -576.000000
32.000000 -782.000000 -576.000000
32.000000 -784.000000 -576.000000
32.000000 -786.000000 -576.000000
32.000000 -788.000000 -576.000000
32.000000 -790.000000 -576.000000
32.000000 -792.000000 -576.000000
32.000000 -794.000000 -576.000000
32.000000 -796.000000 -576.000000
32.000000 -798.000000 -576.000000
32.000000 -800.000000 -576.000000
32.000000 -802.000000 -576.000000
32.000000 -804.000000 -576.000000
32.000000 -806.000000 -576.000000
32.000000 -808.000000 -576.000000
32.000000 -810.000000 -576.000000
32.000000 -812.000000 -576.000000
32.000000 -814.000000 -576.000000
32.000000 -816.000000 -576.000000
32.000000 -818.000000 -576.000000
32.000000 -820.000000 -576.000000
32.000000 -822.000000 -576.000000
32.000000 -824.000000 -576.000000
32.000000 -826.000000 -576.000000
32.000000 -828.000000 -576.000000
32.000000 -830.000000 -576.000000
32.000000 -832.000000 -576.000000
32.000000 -834.000000 -576.000000
32.000000 -836.000000 -576.000000
32.000000 -838.000000 -576.000000
32.000000 -840.000000 -576.000000
