-224.000000 -920.000000 -588.000000
-224.000000 -918.000000 -588.000000
-224.000000 -916.000000 -588.000000
-224.000000 -914.000000 -588.000000
-224.000000 -912.000000 -588.000000
-224.000000 -910.000000 -588.000000
-224.000000 -908.000000 -588.000000
-224.000000 -906.000000 -588.000000
-224.000000 -904.000000 -588.000000
-224.000000 -902.000000 -588.000000
-224.000000 -900.000000 -588.000000
-224.000000 -898.000000 -588.000000
-224.000000 -896.000000 -588.000000
-224.000000 -894.000000 -588.000000
-224.000000 -892.000000 -588.000000
-224.000000 -890.000000 -588.000000
-224.000000 -888.000000 -588.000000
-224.000000 -886.000000 -588.000000
-224.000000 -884.000000 -588.000000
-224.000000 -882.000000 -588.000000
-224.000000 -880.000000 -588.000000
-224.000000 -878.000000 -588.000000
-224.000000 -876.000000 -588.000000
-224.000000 -874.000000 -588.000000
-224.000000 -872.000000 -588.000000
-224.000000 -870.000000 -588.000000
-224.000000 -868.000000 -588.000000
-224.000000 -866.000000 -588.000000
-224.000000 -864.000000 -588.000000
-224.000000 -862.000000 -588.000000
-224.000000 -860.000000 -588.000000
-224.000000 -858.000000 -588.000000
-224.000000 -856.000000 -588.000000
-224.000000 -854.000000 -588.000000
-224.000000 -852.000000 -588.000000
-224.000000 -850.000000 -588.000000
-224.000000 -848.000000 -588.000000
-224.000000 -846.000000 -588.000000
-224.000000 -844.000000 -588.000000
-224.000000 -842.000000 -588.000000
-224.000000 -840.000000 -588.000000
-224.000000 -838.000000 -588.000000
-224.000000 -836.000000 -588.000000
-224.000000 -834.000000 -588.000000
-224.000000 -832.000000 -588.000000
-224.000000 -830.000000 -588.000000
-224.000000 -828.000000 -588.000000
-224.000000 -826.000000 -588.000000
-224.000000 -824.000000 -588.000000
-224.000000 -822.000000 -588.000000
-224.000000 -820.000000 -588.000000
-224.000000 -818.000000 -588.000000
-224.000000 -816.000000 -588.000000
-224.000000 -814.000000 -588.000000
-224.000000 -812.000000 -588.000000
-224.000000 -810.000000 -588.000000
-224.000000 -808.000000 -588.000000
-224.000000 -806.000000 -588.000000
-224.000000 -804.000000 -588.000000
-224.000000 -802.000000 -588.000000
-224.000000 -800.000000 -588.000000
-224.000000 -798.000000 -588.000000
-224.000000 -796.000000 -588.000000
-224.000000 -794.000000 -588.000000
-224.000000 -792.000000 -588.000000
-224.000000 -790.000000 -588.000000
-224.000000 -788.000000 -588.000000
-224.000000 -786.000000 -588.000000
-224.000000 -784.000000 -588.000000
-224.000000 -782.000000 -588.000000
-224.000000 -780.000000 -588.000000
-224.000000 -778.000000 -588.000000
-224.000000 -776.000000 -588.000000
-224.000000 -774.000000 -588.000000
-224.000000 -772.000000 -588.000000
-224.000000 -770.000000 -588.000000
-224.000000 -768.000000 -588.000000
-224.000000 -766.000000 -588.000000
-224.000000 -764.000000 -588.000000
-224.000000 -762.000000 -588.000000
-224.000000 -760.000000 -588.000000
-224.000000 -758.000000 -588.000000
-224.000000 -756.000000 -588.000000
-224.000000 -754.000000 -588.000000
-224.000000 -752.000000 -588.000000
-224.000000 -750.000000 -588.000000
-224.000000 -748.000000 -588.000000
-224.000000 -746.000000 -588.000000
-224.000000 -744.000000 -588.000000
-224.000000 -742.000000 -588.000000
-224.000000 -740.000000 -588.000000
-224.000000 -738.000000 -588.000000
-224.000000 -736.000000 -588.000000
-224.000000 -734.000000 -588.000000
-224.000000 -732.000000 -588.000000
-224.000000 -730.000000 -588.000000
-224.000000 -728.000000 -588.000000
-224.000000 -726.000000 -588.000000
-224.000000 -724.000000 -588.000000
-224.000000 -722.000000 -588.000000
-224.000000 -720.000000 -588.000000
-224.000000 -718.000000 -588.000000
-224.000000 -716.000000 -588.000000
-224.000000 -714.000000 -588.000000
-224.000000 -712.000000 -588.000000
-224.000000 -710.000000 -588.000000
-224.000000 -708.000000 -588.000000
-224.000000 -706.000000 -588.000000
-224.000000 -704.000000 -588.000000
-224.000000 -702.000000 -588.000000
-224.000000 -700.000000 -588.000000
-224.000000 -698.000000 -588.000000
-224.000000 -696.000000 -588.000000
-224.000000 -694.000000 -588.000000
-224.000000 -692.000000 -588.000000
-224.000000 -690.000000 -588.000000
-224.000000 -688.000000 -588.000000
-224.000000 -686.000000 -588.000000
-224.000000 -684.000000 -588.000000
-224.000000 -682.000000 -588.000000
-224.000000 -680.000000 -588.000000
-224.000000 -678.000000 -588.000000
-224.000000 -676.000000 -588.000000
-224.000000 -674.000000 -588.000000
-224.000000 -672.000000 -588.000000
-224.000000 -670.000000 -588.000000
-224.000000 -668.000000 -588.000000
-224.000000 -666.000000 -588.000000
-224.000000 -664.000000 -588.000000
-224.000000 -662.000000 -588.000000
-224.000000 -660.000000 -588.000000
-224.000000 -658.000000 -588.000000
-224.000000 -656.000000 -588.000000
-224.000000 -654.000000 -588.000000
-224.000000 -652.000000 -588.000000
-224.000000 -650.000000 -588.000000
-224.000000 -648.000000 -588.000000
-224.000000 -646.000000 -588.000000
-224.000000 -644.000000 -588.000000
-224.000000 -642.000000 -588.000000
-224.000000 -640.000000 -588.000000
-224.000000 -638.000000 -588.000000
-224.000000 -636.000000 -588.000000
-224.000000 -634.000000 -588.000000
-224.000000 -632.000000 -588.000000
-224.000000 -630.000000 -588.000000
-224.000000 -628.000000 -588.000000
-224.000000 -626.000000 -588.000000
-224.000000 -624.000000 -588.000000
-224.000000 -622.000000 -588.000000
-224.000000 -620.000000 -588.000000
-224.000000 -618.000000 -588.000000
-224.000000 -616.000000 -588.000000
-224.000000 -614.000000 -588.000000
-224.000000 -612.000000 -588.000000
-224.000000 -610.000000 -588.000000
-224.000000 -608.000000 -588.000000
-224.000000 -606.000000 -588.000000
-224.000000 -604.000000 -588.000000
-224.000000 -602.000000 -588.000000
-224.000000 -600.000000 -588.000000
-224.000000 -598.000000 -588.000000
-224.000000 -596.000000 -588.000000
-224.000000 -594.000000 -588.000000
-224.000000 -592.000000 -588.000000
-224.000000 -590.000000 -588.000000
-224.000000 -588.000000 -588.000000
-224.000000 -586.000000 -588.000000
-224.000000 -584.000000 -588.000000
-224.000000 -582.000000 -588.000000
-224.000000 -580.000000 -588.000000
-224.000000 -578.000000 -588.000000
-224.000000 -576.000000 -588.000000
-224.000000 -574.000000 -588.000000
-224.000000 -572.000000 -588.000000
-224.000000 -570.000000 -588.000000
-224.000000 -568.000000 -588.000000
-224.000000 -566.000000 -588.000000
-224.000000 -564.000000 -588.000000
-224.000000 -562.000000 -588.000000
-224.000000 -560.000000 -588.000000
-224.000000 -558.000000 -588.000000
-224.000000 -556.000000 -588.000000
-224.000000 -554.000000 -588.000000
-224.000000 -552.000000 -588.000000
-224.000000 -550.000000 -588.000000
-224.000000 -548.000000 -588.000000
-224.000000 -546.000000 -588.000000
-224.000000 -544.000000 -588.000000
-224.000000 -542.000000 -588.000000
-224.000000 -540.000000 -588.000000
-224.000000 -538.000000 -588.000000
-224.000000 -536.000000 -588.000000
-224.000000 -534.000000 -588.000000
-224.000000 -532.000000 -588.000000
-224.000000 -530.000000 -588.000000
-224.000000 -528.000000 -588.000000
-224.000000 -526.000000 -588.000000
-224.000000 -524.000000 -588.000000
-224.000000 -522.000000 -588.000000
-224.000000 -520.000000 -588.000000
-224.000000 -518.000000 -588.000000
-224.000000 -516.000000 -588.000000
-224.000000 -514.000000 -588.000000
-224.000000 -512.000000 -588.000000
-224.000000 -510.000000 -588.000000
-224.000000 -508.000000 -588.000000
-224.000000 -506.000000 -588.000000
-224.000000 -504.000000 -588.000000
-224.000000 -502.000000 -588.000000
-224.000000 -500.000000 -588.000000
-224.000000 -498.000000 -588.000000
-224.000000 -496.000000 -588.000000
-224.000000 -494.000000 -588.000000
-224.000000 -492.000000 -588.000000
-224.000000 -490.000000 -588.000000
-224.000000 -488.000000 -588.000000
-224.000000 -486.000000 -588.000000
-224.000000 -484.000000 -588.000000
-224.000000 -482.000000 -588.000000
-224.000000 -480.000000 -588.000000
-224.000000 -478.000000 -588.000000
-224.000000 -476.000000 -588.000000
-224.000000 -474.000000 -588.000000
-224.000000 -472.000000 -588.000000
-224.000000 -470.000000 -588.000000
-224.000000 -468.000000 -588.000000
-224.000000 -466.000000 -588.000000
-224.000000 -464.000000 -588.000000
-224.000000 -462.000000 -588.000000
-224.000000 -460.000000 -588.000000
-224.000000 -458.000000 -588.000000
-224.000000 -456.000000 -588.000000
-224.000000 -454.000000 -588.000000
-224.000000 -452.000000 -588.000000
-224.000000 -448.000000 -588.000000
-224.000000 -448.000000 -588.000000
-225.533659 -446.718136 -587.931329
-227.067317 -445.436272 -587.862657
-228.600976 -444.154408 -587.793986
-230.134635 -442.872544 -587.725315
-231.668293 -441.590680 -587.656644
-233.201952 -440.308816 -587.587972
-234.735611 -439.026952 -587.519301
-236.269270 -437.745088 -587.450630
-237.802928 -436.463224 -587.381958
-239.336587 -435.181360 -587.313287
-240.870246 -433.899496 -587.244616
-242.403904 -432.617632 -587.175945
-243.937563 -431.335768 -587.107273
-245.471222 -430.053904 -587.038602
-247.004880 -428.772040 -586.969931
-248.538539 -427.490176 -586.901259
-250.072198 -426.208312 -586.832588
-251.605856 -424.926448 -586.763917
-253.139515 -423.644584 -586.695246
-254.673174 -422.362720 -586.626574
-256.206833 -421.080856 -586.557903
-257.740491 -419.798992 -586.489232
-259.274150 -418.517128 -586.420560
-260.807809 -417.235264 -586.351889
-262.341467 -415.953400 -586.283218
-263.875126 -414.671536 -586.214547
-265.408785 -413.389672 -586.145875
-266.942443 -412.107809 -586.077204
-268.476102 -410.825945 -586.008533
-270.009761 -409.544081 -585.939861
-271.543419 -408.262217 -585.871190
-273.077078 -406.980353 -585.802519
-274.610737 -405.698489 -585.733848
-276.144396 -404.416625 -585.665176
-277.678054 -403.134761 -585.596505
-279.211713 -401.852897 -585.527834
-280.745372 -400.571033 -585.459162
-282.279030 -399.289169 -585.390491
-283.812689 -398.007305 -585.321820
-285.346348 -396.725441 -585.253149
-286.880006 -395.443577 -585.184477
-288.413665 -394.161713 -585.115806
-289.947324 -392.879849 -585.047135
-291.480982 -391.597985 -584.978463
-293.014641 -390.316121 -584.909792
-294.548300 -389.034257 -584.841121
-296.081959 -387.752393 -584.772450
-297.615617 -386.470529 -584.703778
-299.149276 -385.188665 -584.635107
-300.682935 -383.906801 -584.566436
-302.216593 -382.624937 -584.497764
-303.750252 -381.343073 -584.429093
-305.283911 -380.061209 -584.360422
-306.817569 -378.779345 -584.291751
-308.351228 -377.497481 -584.223079
-309.884887 -376.215617 -584.154408
-311.418545 -374.933753 -584.085737
-312.952204 -373.651889 -584.017065
-314.485863 -372.370025 -583.948394
-316.019522 -371.088161 -583.879723
-317.553180 -369.806297 -583.811052
-319.086839 -368.524433 -583.742380
-320.620498 -367.242569 -583.673709
-322.154156 -365.960705 -583.605038
-323.687815 -364.678841 -583.536366
-325.221474 -363.396977 -583.467695
-326.755132 -362.115113 -583.399024
-328.288791 -360.833249 -583.330353
-329.822450 -359.551385 -583.261681
-331.356108 -358.269521 -583.193010
-332.889767 -356.987657 -583.124339
-334.423426 -355.705793 -583.055667
-335.957085 -354.423929 -582.986996
-337.490743 -353.142065 -582.918325
-339.024402 -351.860201 -582.849654
-340.558061 -350.578337 -582.780982
-342.091719 -349.296473 -582.712311
-343.625378 -348.014609 -582.643640
-345.159037 -346.732745 -582.574969
-346.692695 -345.450881 -582.506297
-348.226354 -344.169017 -582.437626
-349.760013 -342.887153 -582.368955
-351.293672 -341.605289 -582.300283
-352.827330 -340.323426 -582.231612
-354.360989 -339.041562 -582.162941
-355.894648 -337.759698 -582.094270
-357.428306 -336.477834 -582.025598
-358.961965 -335.195970 -581.956927
-360.495624 -333.914106 -581.888256
-362.029282 -332.632242 -581.819584
-363.562941 -331.350378 -581.750913
-365.096600 -330.068514 -581.682242
-366.630258 -328.786650 -581.613571
-368.163917 -327.504786 -581.544899
-369.697576 -326.222922 -581.476228
-371.231235 -324.941058 -581.407557
-372.764893 -323.659194 -581.338885
-374.298552 -322.377330 -581.270214
-375.832211 -321.095466 -581.201543
-377.365869 -319.813602 -581.132872
-378.899528 -318.531738 -581.064200
-380.433187 -317.249874 -580.995529
-381.966845 -315.968010 -580.926858
-383.500504 -314.686146 -580.858186
-385.034163 -313.404282 -580.789515
-386.567821 -312.122418 -580.720844
-388.101480 -310.840554 -580.652173
-389.635139 -309.558690 -580.583501
-391.168798 -308.276826 -580.514830
-392.702456 -306.994962 -580.446159
-394.236115 -305.713098 -580.377487
-395.769774 -304.431234 -580.308816
-397.303432 -303.149370 -580.240145
-398.837091 -301.867506 -580.171474
-400.370750 -300.585642 -580.102802
-401.904408 -299.303778 -580.034131
-403.438067 -298.021914 -579.965460
-404.971726 -296.740050 -579.896788
-406.505384 -295.458186 -579.828117
-408.039043 -294.176322 -579.759446
-409.572702 -292.894458 -579.690775
-411.106361 -291.612594 -579.622103
-412.640019 -290.330730 -579.553432
-414.173678 -289.048866 -579.484761
-415.707337 -287.767002 -579.416089
-417.240995 -286.485138 -579.347418
-418.774654 -285.203274 -579.278747
-420.308313 -283.921410 -579.210076
-421.841971 -282.639546 -579.141404
-423.375630 -281.357682 -579.072733
-424.909289 -280.075818 -579.004062
-426.442947 -278.793954 -578.935390
-427.976606 -277.512090 -578.866719
-429.510265 -276.230226 -578.798048
-431.043924 -274.948362 -578.729377
-432.577582 -273.666498 -578.660705
-434.111241 -272.384634 -578.592034
-435.644900 -271.102770 -578.523363
-437.178558 -269.820906 -578.454691
-438.712217 -268.539043 -578.386020
-440.245876 -267.257179 -578.317349
-441.779534 -265.975315 -578.248678
-443.313193 -264.693451 -578.180006
-444.846852 -263.411587 -578.111335
-446.380510 -262.129723 -578.042664
-447.914169 -260.847859 -577.973992
-449.447828 -259.565995 -577.905321
-450.981487 -258.284131 -577.836650
-452.515145 -257.002267 -577.767979
-454.048804 -255.720403 -577.699307
-455.582463 -254.438539 -577.630636
-457.116121 -253.156675 -577.561965
-458.649780 -251.874811 -577.493293
-460.183439 -250.592947 -577.424622
-461.717097 -249.311083 -577.355951
-463.250756 -248.029219 -577.287280
-464.784415 -246.747355 -577.218608
-466.318073 -245.465491 -577.149937
-467.851732 -244.183627 -577.081266
-469.385391 -242.901763 -577.012594
-470.919050 -241.619899 -576.943923
-472.452708 -240.338035 -576.875252
-473.986367 -239.056171 -576.806581
-475.520026 -237.774307 -576.737909
-477.053684 -236.492443 -576.669238
-478.587343 -235.210579 -576.600567
-480.121002 -233.928715 -576.531895
-481.654660 -232.646851 -576.463224
-483.188319 -231.364987 -576.394553
-484.721978 -230.083123 -576.325882
-486.255636 -228.801259 -576.257210
-487.789295 -227.519395 -576.188539
-489.322954 -226.237531 -576.119868
-492.000000 -224.000000 -576.000000
-492.000000 -224.000000 -576.000000
-492.894427 -224.000000 -574.211146
-493.788854 -224.000000 -572.422291
-494.683282 -224.000000 -570.633437
-495.577709 -224.000000 -568.844582
-496.472136 -224.000000 -567.055728
-497.366563 -224.000000 -565.266874
-498.260990 -224.000000 -563.478019
-499.155418 -224.000000 -561.689165
-500.049845 -224.000000 -559.900311
-500.944272 -224.000000 -558.111456
-501.838699 -224.000000 -556.322602
-502.733126 -224.000000 -554.533747
-503.627553 -224.000000 -552.744893
-504.521981 -224.000000 -550.956039
-505.416408 -224.000000 -549.167184
-506.310835 -224.000000 -547.378330
-507.205262 -224.000000 -545.589476
-508.099689 -224.000000 -543.800621
-508.994117 -224.000000 -542.011767
-509.888544 -224.000000 -540.222912
-510.782971 -224.000000 -538.434058
-511.677398 -224.000000 -536.645204
-512.571825 -224.000000 -534.856349
-513.466253 -224.000000 -533.067495
-514.360680 -224.000000 -531.278640
-515.255107 -224.000000 -529.489786
-516.149534 -224.000000 -527.700932
-517.043961 -224.000000 -525.912077
-517.938389 -224.000000 -524.123223
-518.832816 -224.000000 -522.334369
-519.727243 -224.000000 -520.545514
-520.621670 -224.000000 -518.756660
-521.516097 -224.000000 -516.967805
-522.410524 -224.000000 -515.178951
-524.000000 -224.000000 -512.000000
-524.000000 -224.000000 -512.000000
-523.828077 -225.814933 -511.177527
-523.656155 -227.629866 -510.355055
-523.484232 -229.444799 -509.532582
-523.312309 -231.259732 -508.710110
-523.140387 -233.074665 -507.887637
-522.968464 -234.889598 -507.065165
-522.796541 -236.704531 -506.242692
-522.624619 -238.519464 -505.420220
-522.452696 -240.334396 -504.597747
-522.280773 -242.149329 -503.775275
-522.108851 -243.964262 -502.952802
-521.936928 -245.779195 -502.130330
-521.765005 -247.594128 -501.307857
-521.593083 -249.409061 -500.485385
-521.421160 -251.223994 -499.662912
-521.249237 -253.038927 -498.840440
-521.077315 -254.853860 -498.017967
-520.905392 -256.668793 -497.195495
-520.733469 -258.483726 -496.373022
-520.561547 -260.298659 -495.550550
-520.389624 -262.113592 -494.728077
-520.217701 -263.928525 -493.905605
-520.045779 -265.743458 -493.083132
-519.873856 -267.558391 -492.260660
-519.701933 -269.373323 -491.438187
-519.530011 -271.188256 -490.615715
-519.358088 -273.003189 -489.793242
-519.186166 -274.818122 -488.970770
-519.014243 -276.633055 -488.148297
-518.842320 -278.447988 -487.325825
-518.670398 -280.262921 -486.503352
-518.498475 -282.077854 -485.680880
-518.326552 -283.892787 -484.858407
-518.154630 -285.707720 -484.035935
-517.982707 -287.522653 -483.213462
-517.810784 -289.337586 -482.390990
-517.638862 -291.152519 -481.568517
-517.466939 -292.967452 -480.746045
-517.295016 -294.782385 -479.923572
-517.123094 -296.597318 -479.101100
-516.951171 -298.412251 -478.278627
-516.779248 -300.227183 -477.456155
-516.607326 -302.042116 -476.633682
-516.435403 -303.857049 -475.811210
-516.263480 -305.671982 -474.988737
-516.091558 -307.486915 -474.166265
-515.919635 -309.301848 -473.343792
-515.747712 -311.116781 -472.521320
-515.575790 -312.931714 -471.698847
-515.403867 -314.746647 -470.876375
-515.231944 -316.561580 -470.053902
-515.060022 -318.376513 -469.231430
-514.888099 -320.191446 -468.408957
-514.716176 -322.006379 -467.586485
-514.544254 -323.821312 -466.764012
-514.372331 -325.636245 -465.941540
-514.200408 -327.451178 -465.119067
-514.028486 -329.266111 -464.296595
-513.856563 -331.081043 -463.474122
-513.684640 -332.895976 -462.651650
-513.512718 -334.710909 -461.829177
-513.340795 -336.525842 -461.006705
-513.168872 -338.340775 -460.184232
-512.996950 -340.155708 -459.361760
-512.825027 -341.970641 -458.539287
-512.653104 -343.785574 -457.716815
-512.481182 -345.600507 -456.894342
-512.309259 -347.415440 -456.071870
-512.000000 -350.680190 -454.592384
-512.000000 -350.680190 -454.592384
-510.580542 -351.986146 -455.121172
-509.161084 -353.292102 -455.649960
-507.741625 -354.598059 -456.178748
-506.322167 -355.904015 -456.707536
-504.902709 -357.209971 -457.236324
-503.483251 -358.515927 -457.765112
-502.063792 -359.821883 -458.293900
-500.644334 -361.127839 -458.822688
-499.224876 -362.433796 -459.351476
-497.805418 -363.739752 -459.880264
-496.385959 -365.045708 -460.409052
-494.966501 -366.351664 -460.937840
-493.547043 -367.657620 -461.466628
-492.127585 -368.963577 -461.995416
-490.708126 -370.269533 -462.524204
-489.288668 -371.575489 -463.052992
-487.869210 -372.881445 -463.581780
-486.449752 -374.187401 -464.110568
-485.030293 -375.493357 -464.639356
-483.610835 -376.799314 -465.168144
-482.191377 -378.105270 -465.696932
-480.771919 -379.411226 -466.225720
-479.352460 -380.717182 -466.754508
-477.933002 -382.023138 -467.283296
-476.513544 -383.329094 -467.812084
-475.094086 -384.635051 -468.340873
-473.674628 -385.941007 -468.869661
-472.255169 -387.246963 -469.398449
-470.835711 -388.552919 -469.927237
-469.416253 -389.858875 -470.456025
-467.000000 -392.081921 -471.356147
-467.000000 -392.081921 -471.356147
-465.000000 -392.081921 -471.356147
-462.000000 -392.081921 -471.356147
-462.000000 -392.081921 -471.356147
-461.789777 -390.328916 -470.416583
-461.579555 -388.575911 -469.477019
-461.369332 -386.822906 -468.537456
-461.159110 -385.069901 -467.597892
-460.948887 -383.316896 -466.658329
-460.738665 -381.563891 -465.718765
-460.528442 -379.810885 -464.779201
-460.318220 -378.057880 -463.839638
-460.107997 -376.304875 -462.900074
-459.897775 -374.551870 -461.960511
-459.687552 -372.798865 -461.020947
-459.477330 -371.045860 -460.081383
-459.267107 -369.292855 -459.141820
-459.056885 -367.539850 -458.202256
-458.846662 -365.786845 -457.262692
-458.636440 -364.033840 -456.323129
-458.426217 -362.280835 -455.383565
-458.215995 -360.527830 -454.444002
-458.005772 -358.774825 -453.504438
-457.795550 -357.021820 -452.564874
-457.585327 -355.268815 -451.625311
-457.375105 -353.515810 -450.685747
-457.164882 -351.762805 -449.746184
-456.954659 -350.009800 -448.806620
-456.744437 -348.256794 -447.867056
-456.534214 -346.503789 -446.927493
-456.323992 -344.750784 -445.987929
-456.113769 -342.997779 -445.048366
-455.903547 -341.244774 -444.108802
-455.693324 -339.491769 -443.169238
-455.483102 -337.738764 -442.229675
-455.272879 -335.985759 -441.290111
-455.000000 -333.710271 -440.070511
-455.000000 -333.710271 -440.070511
-454.174110 -335.406572 -439.406831
-453.348219 -337.102872 -438.743151
-452.522329 -338.799172 -438.079470
-451.696439 -340.495472 -437.415790
-450.870548 -342.191772 -436.752110
-450.044658 -343.888072 -436.088430
-449.218768 -345.584372 -435.424750
-448.000000 -348.087605 -434.445356
-448.000000 -348.087605 -434.445356
-448.000000 -348.902277 -432.618799
-448.000000 -349.716949 -430.792242
-448.000000 -350.531621 -428.965685
-448.000000 -351.346293 -427.139129
-448.000000 -352.160965 -425.312572
-448.000000 -352.975638 -423.486015
-448.000000 -353.790310 -421.659459
-448.000000 -354.604982 -419.832902
-448.000000 -355.419654 -418.006345
-448.000000 -356.234326 -416.179789
-448.000000 -357.048998 -414.353232
-448.000000 -357.863670 -412.526675
-448.000000 -358.678343 -410.700119
-448.000000 -359.493015 -408.873562
-448.000000 -360.307687 -407.047005
-448.000000 -361.122359 -405.220449
-448.000000 -361.937031 -403.393892
-448.000000 -362.751703 -401.567335
-448.000000 -363.566375 -399.740779
-448.000000 -364.381048 -397.914222
-448.000000 -365.195720 -396.087665
-448.000000 -366.010392 -394.261109
-448.000000 -366.825064 -392.434552
-448.000000 -367.639736 -390.607995
-448.000000 -368.454408 -388.781439
-448.000000 -369.269081 -386.954882
-448.000000 -370.083753 -385.128325
-448.000000 -370.898425 -383.301769
-448.000000 -371.713097 -381.475212
-448.000000 -372.527769 -379.648655
-448.000000 -373.342441 -377.822099
-448.000000 -374.157113 -375.995542
-448.000000 -374.971786 -374.168985
-448.000000 -375.786458 -372.342429
-448.000000 -376.601130 -370.515872
-448.000000 -377.415802 -368.689315
-448.000000 -378.230474 -366.862758
-448.000000 -379.045146 -365.036202
-448.000000 -379.859818 -363.209645
-448.000000 -380.674491 -361.383088
-448.000000 -381.489163 -359.556532
-448.000000 -382.303835 -357.729975
-448.000000 -383.118507 -355.903418
-448.000000 -383.933179 -354.076862
-448.000000 -384.747851 -352.250305
-448.000000 -385.562523 -350.423748
-448.000000 -386.377196 -348.597192
-448.000000 -387.191868 -346.770635
-448.000000 -388.006540 -344.944078
-448.000000 -388.821212 -343.117522
-448.000000 -389.635884 -341.290965
-448.000000 -390.450556 -339.464408
-448.000000 -391.265229 -337.637852
-448.000000 -392.079901 -335.811295
-448.000000 -392.894573 -333.984738
-448.000000 -393.709245 -332.158182
-448.000000 -394.523917 -330.331625
-448.000000 -395.338589 -328.505068
-448.000000 -396.153261 -326.678512
-448.000000 -396.967934 -324.851955
-448.000000 -397.782606 -323.025398
-448.000000 -398.597278 -321.198842
-448.000000 -399.411950 -319.372285
-448.000000 -400.226622 -317.545728
-448.000000 -401.041294 -315.719172
-448.000000 -401.855966 -313.892615
-448.000000 -402.670639 -312.066058
-448.000000 -403.485311 -310.239502
-448.000000 -404.484163 -308.000000
-448.000000 -404.484163 -308.000000
-449.184854 -406.095411 -308.000000
-450.369709 -407.706658 -308.000000
-451.554563 -409.317906 -308.000000
-452.739418 -410.929154 -308.000000
-453.924272 -412.540402 -308.000000
-455.109127 -414.151650 -308.000000
-456.293981 -415.762898 -308.000000
-457.478836 -417.374146 -308.000000
-458.663690 -418.985394 -308.000000
-459.848545 -420.596642 -308.000000
-461.033399 -422.207890 -308.000000
-462.218253 -423.819138 -308.000000
-463.403108 -425.430386 -308.000000
-464.587962 -427.041634 -308.000000
-465.772817 -428.652882 -308.000000
-466.957671 -430.264130 -308.000000
-468.142526 -431.875378 -308.000000
-469.327380 -433.486625 -308.000000
-470.512235 -435.097873 -308.000000
-471.697089 -436.709121 -308.000000
-472.881944 -438.320369 -308.000000
-474.066798 -439.931617 -308.000000
-475.251653 -441.542865 -308.000000
-476.436507 -443.154113 -308.000000
-477.621361 -444.765361 -308.000000
-478.806216 -446.376609 -308.000000
-480.000000 -448.000000 -308.000000
-480.000000 -448.000000 -308.000000
-479.187723 -449.827623 -308.000000
-478.375446 -451.655246 -308.000000
-477.563169 -453.482869 -308.000000
-476.750892 -455.310492 -308.000000
-475.938615 -457.138115 -308.000000
-475.126338 -458.965739 -308.000000
-474.314061 -460.793362 -308.000000
-473.501785 -462.620985 -308.000000
-472.689508 -464.448608 -308.000000
-471.877231 -466.276231 -308.000000
-471.064954 -468.103854 -308.000000
-470.252677 -469.931477 -308.000000
-469.440400 -471.759100 -308.000000
-468.628123 -473.586723 -308.000000
-467.815846 -475.414346 -308.000000
-467.003569 -477.241970 -308.000000
-466.191292 -479.069593 -308.000000
-465.379015 -480.897216 -308.000000
-464.566738 -482.724839 -308.000000
-463.754461 -484.552462 -308.000000
-462.942184 -486.380085 -308.000000
-462.129907 -488.207708 -308.000000
-461.317631 -490.035331 -308.000000
-460.505354 -491.862954 -308.000000
-459.693077 -493.690577 -308.000000
-458.880800 -495.518201 -308.000000
-458.068523 -497.345824 -308.000000
-457.256246 -499.173447 -308.000000
-456.443969 -501.001070 -308.000000
-455.631692 -502.828693 -308.000000
-454.819415 -504.656316 -308.000000
-454.007138 -506.483939 -308.000000
-453.194861 -508.311562 -308.000000
-452.382584 -510.139185 -308.000000
-451.570307 -511.966808 -308.000000
-450.758030 -513.794432 -308.000000
-449.945754 -515.622055 -308.000000
-449.133477 -517.449678 -308.000000
-448.321200 -519.277301 -308.000000
-447.508923 -521.104924 -308.000000
-446.696646 -522.932547 -308.000000
-445.884369 -524.760170 -308.000000
-445.072092 -526.587793 -308.000000
-444.259815 -528.415416 -308.000000
-443.447538 -530.243039 -308.000000
-442.635261 -532.070662 -308.000000
-441.822984 -533.898286 -308.000000
-441.010707 -535.725909 -308.000000
-440.198430 -537.553532 -308.000000
-439.386153 -539.381155 -308.000000
-438.573876 -541.208778 -308.000000
-437.761600 -543.036401 -308.000000
-436.949323 -544.864024 -308.000000
-436.137046 -546.691647 -308.000000
-435.324769 -548.519270 -308.000000
-434.512492 -550.346893 -308.000000
-433.700215 -552.174517 -308.000000
-432.887938 -554.002140 -308.000000
-432.075661 -555.829763 -308.000000
-431.263384 -557.657386 -308.000000
-430.451107 -559.485009 -308.000000
-429.638830 -561.312632 -308.000000
-428.826553 -563.140255 -308.000000
-428.014276 -564.967878 -308.000000
-427.201999 -566.795501 -308.000000
-426.389722 -568.623124 -308.000000
-425.577446 -570.450748 -308.000000
-424.765169 -572.278371 -308.000000
-423.952892 -574.105994 -308.000000
-423.140615 -575.933617 -308.000000
-422.328338 -577.761240 -308.000000
-421.516061 -579.588863 -308.000000
-420.703784 -581.416486 -308.000000
-419.891507 -583.244109 -308.000000
-419.079230 -585.071732 -308.000000
-418.266953 -586.899355 -308.000000
-417.454676 -588.726978 -308.000000
-416.642399 -590.554602 -308.000000
-415.830122 -592.382225 -308.000000
-415.017845 -594.209848 -308.000000
-414.205568 -596.037471 -308.000000
-413.393292 -597.865094 -308.000000
-412.581015 -599.692717 -308.000000
-411.768738 -601.520340 -308.000000
-410.956461 -603.347963 -308.000000
-410.144184 -605.175586 -308.000000
-409.331907 -607.003209 -308.000000
-408.519630 -608.830833 -308.000000
-407.707353 -610.658456 -308.000000
-406.895076 -612.486079 -308.000000
-406.082799 -614.313702 -308.000000
-405.270522 -616.141325 -308.000000
-404.458245 -617.968948 -308.000000
-403.645968 -619.796571 -308.000000
-402.833691 -621.624194 -308.000000
-402.021415 -623.451817 -308.000000
-401.209138 -625.279440 -308.000000
-400.396861 -627.107064 -308.000000
-399.584584 -628.934687 -308.000000
-398.772307 -630.762310 -308.000000
-397.960030 -632.589933 -308.000000
-397.147753 -634.417556 -308.000000
-396.335476 -636.245179 -308.000000
-395.523199 -638.072802 -308.000000
-394.710922 -639.900425 -308.000000
-393.898645 -641.728048 -308.000000
-393.086368 -643.555671 -308.000000
-392.274091 -645.383295 -308.000000
-391.461814 -647.210918 -308.000000
-390.649537 -649.038541 -308.000000
-389.837261 -650.866164 -308.000000
-389.024984 -652.693787 -308.000000
-388.212707 -654.521410 -308.000000
-387.400430 -656.349033 -308.000000
-386.588153 -658.176656 -308.000000
-385.775876 -660.004279 -308.000000
-384.963599 -661.831902 -308.000000
-384.151322 -663.659525 -308.000000
-383.339045 -665.487149 -308.000000
-382.526768 -667.314772 -308.000000
-381.714491 -669.142395 -308.000000
-380.902214 -670.970018 -308.000000
-380.089937 -672.797641 -308.000000
-379.277660 -674.625264 -308.000000
-378.465383 -676.452887 -308.000000
-377.653107 -678.280510 -308.000000
-376.840830 -680.108133 -308.000000
-376.028553 -681.935756 -308.000000
-375.216276 -683.763380 -308.000000
-374.403999 -685.591003 -308.000000
-373.591722 -687.418626 -308.000000
-372.779445 -689.246249 -308.000000
-371.967168 -691.073872 -308.000000
-371.154891 -692.901495 -308.000000
-370.342614 -694.729118 -308.000000
-369.530337 -696.556741 -308.000000
-368.718060 -698.384364 -308.000000
-367.905783 -700.211987 -308.000000
-367.093506 -702.039611 -308.000000
-366.281230 -703.867234 -308.000000
-365.468953 -705.694857 -308.000000
-364.656676 -707.522480 -308.000000
-363.844399 -709.350103 -308.000000
-363.032122 -711.177726 -308.000000
-362.219845 -713.005349 -308.000000
-361.407568 -714.832972 -308.000000
-360.595291 -716.660595 -308.000000
-359.783014 -718.488218 -308.000000
-358.970737 -720.315841 -308.000000
-358.158460 -722.143465 -308.000000
-357.346183 -723.971088 -308.000000
-356.533906 -725.798711 -308.000000
-355.721629 -727.626334 -308.000000
-354.909352 -729.453957 -308.000000
-354.097076 -731.281580 -308.000000
-353.284799 -733.109203 -308.000000
-352.472522 -734.936826 -308.000000
-351.660245 -736.764449 -308.000000
-350.847968 -738.592072 -308.000000
-350.035691 -740.419696 -308.000000
-349.223414 -742.247319 -308.000000
-348.411137 -744.074942 -308.000000
-347.598860 -745.902565 -308.000000
-346.786583 -747.730188 -308.000000
-345.974306 -749.557811 -308.000000
-345.162029 -751.385434 -308.000000
-344.349752 -753.213057 -308.000000
-343.537475 -755.040680 -308.000000
-342.725198 -756.868303 -308.000000
-341.912922 -758.695927 -308.000000
-341.100645 -760.523550 -308.000000
-340.288368 -762.351173 -308.000000
-339.476091 -764.178796 -308.000000
-338.663814 -766.006419 -308.000000
-337.851537 -767.834042 -308.000000
-337.039260 -769.661665 -308.000000
-336.226983 -771.489288 -308.000000
-335.414706 -773.316911 -308.000000
-334.602429 -775.144534 -308.000000
-333.790152 -776.972158 -308.000000
-332.977875 -778.799781 -308.000000
-332.165598 -780.627404 -308.000000
-331.353321 -782.455027 -308.000000
-330.541044 -784.282650 -308.000000
-329.728768 -786.110273 -308.000000
-328.916491 -787.937896 -308.000000
-328.104214 -789.765519 -308.000000
-327.291937 -791.593142 -308.000000
-326.479660 -793.420765 -308.000000
-325.667383 -795.248388 -308.000000
-324.855106 -797.076012 -308.000000
-324.042829 -798.903635 -308.000000
-323.230552 -800.731258 -308.000000
-322.418275 -802.558881 -308.000000
-321.605998 -804.386504 -308.000000
-320.793721 -806.214127 -308.000000
-319.981444 -808.041750 -308.000000
-319.169167 -809.869373 -308.000000
-318.356891 -811.696996 -308.000000
-317.544614 -813.524619 -308.000000
-316.732337 -815.352243 -308.000000
-315.920060 -817.179866 -308.000000
-315.107783 -819.007489 -308.000000
-314.295506 -820.835112 -308.000000
-313.483229 -822.662735 -308.000000
-312.670952 -824.490358 -308.000000
-311.858675 -826.317981 -308.000000
-311.046398 -828.145604 -308.000000
-310.234121 -829.973227 -308.000000
-309.421844 -831.800850 -308.000000
-308.609567 -833.628474 -308.000000
-307.797290 -835.456097 -308.000000
-306.985013 -837.283720 -308.000000
-306.172737 -839.111343 -308.000000
-305.360460 -840.938966 -308.000000
-304.548183 -842.766589 -308.000000
-303.735906 -844.594212 -308.000000
-302.923629 -846.421835 -308.000000
-302.111352 -848.249458 -308.000000
-301.299075 -850.077081 -308.000000
-300.486798 -851.904704 -308.000000
-299.674521 -853.732328 -308.000000
-298.862244 -855.559951 -308.000000
-298.049967 -857.387574 -308.000000
-297.237690 -859.215197 -308.000000
-296.425413 -861.042820 -308.000000
-295.613136 -862.870443 -308.000000
-294.800859 -864.698066 -308.000000
-293.988583 -866.525689 -308.000000
-293.176306 -868.353312 -308.000000
-292.364029 -870.180935 -308.000000
-291.551752 -872.008559 -308.000000
-290.739475 -873.836182 -308.000000
-289.927198 -875.663805 -308.000000
-289.114921 -877.491428 -308.000000
-288.302644 -879.319051 -308.000000
-287.490367 -881.146674 -308.000000
-286.678090 -882.974297 -308.000000
-285.865813 -884.801920 -308.000000
-285.053536 -886.629543 -308.000000
-284.241259 -888.457166 -308.000000
-283.428982 -890.284790 -308.000000
-282.616705 -892.112413 -308.000000
-281.804429 -893.940036 -308.000000
-280.992152 -895.767659 -308.000000
-280.179875 -897.595282 -308.000000
-279.367598 -899.422905 -308.000000
-278.555321 -901.250528 -308.000000
-277.743044 -903.078151 -308.000000
-276.930767 -904.905774 -308.000000
-276.118490 -906.733397 -308.000000
-275.306213 -908.561021 -308.000000
-274.493936 -910.388644 -308.000000
-273.681659 -912.216267 -308.000000
-272.869382 -914.043890 -308.000000
-272.057105 -915.871513 -308.000000
-271.244828 -917.699136 -308.000000
-270.432552 -919.526759 -308.000000
-269.620275 -921.354382 -308.000000
-268.807998 -923.182005 -308.000000
-267.995721 -925.009628 -308.000000
-267.183444 -926.837251 -308.000000
-266.371167 -928.664875 -308.000000
-265.558890 -930.492498 -308.000000
-264.746613 -932.320121 -308.000000
-263.934336 -934.147744 -308.000000
-263.122059 -935.975367 -308.000000
-262.309782 -937.802990 -308.000000
-261.497505 -939.630613 -308.000000
-260.685228 -941.458236 -308.000000
-259.872951 -943.285859 -308.000000
-259.060674 -945.113482 -308.000000
-258.248398 -946.941106 -308.000000
-257.436121 -948.768729 -308.000000
-256.623844 -950.596352 -308.000000
-255.811567 -952.423975 -308.000000
-254.999290 -954.251598 -308.000000
-254.187013 -956.079221 -308.000000
-253.374736 -957.906844 -308.000000
-252.562459 -959.734467 -308.000000
-251.750182 -961.562090 -308.000000
-250.937905 -963.389713 -308.000000
-250.125628 -965.217337 -308.000000
-249.313351 -967.044960 -308.000000
-248.501074 -968.872583 -308.000000
-247.688797 -970.700206 -308.000000
-246.876520 -972.527829 -308.000000
-246.064244 -974.355452 -308.000000
-245.251967 -976.183075 -308.000000
-244.439690 -978.010698 -308.000000
-243.627413 -979.838321 -308.000000
-242.815136 -981.665944 -308.000000
-242.002859 -983.493567 -308.000000
-241.190582 -985.321191 -308.000000
-240.378305 -987.148814 -308.000000
-239.566028 -988.976437 -308.000000
-238.753751 -990.804060 -308.000000
-237.941474 -992.631683 -308.000000
-237.129197 -994.459306 -308.000000
-236.316920 -996.286929 -308.000000
-235.504643 -998.114552 -308.000000
-234.692367 -999.942175 -308.000000
-233.880090 -1001.769798 -308.000000
-233.067813 -1003.597422 -308.000000
-232.255536 -1005.425045 -308.000000
-231.443259 -1007.252668 -308.000000
-230.630982 -1009.080291 -308.000000
-229.818705 -1010.907914 -308.000000
-229.006428 -1012.735537 -308.000000
-228.194151 -1014.563160 -308.000000
-227.381874 -1016.390783 -308.000000
-226.569597 -1018.218406 -308.000000
-225.757320 -1020.046029 -308.000000
-224.945043 -1021.873653 -308.000000
-224.000000 -1024.000000 -308.000000
-224.000000 -1024.000000 -308.000000
-224.000000 -1026.000000 -308.000000
-224.000000 -1028.000000 -308.000000
-224.000000 -1030.000000 -308.000000
-224.000000 -1032.000000 -308.000000
-224.000000 -1034.000000 -308.000000
-224.000000 -1036.000000 -308.000000
-224.000000 -1038.000000 -308.000000
-224.000000 -1040.000000 -308.000000
-224.000000 -1042.000000 -308.000000
-224.000000 -1044.000000 -308.000000
-224.000000 -1046.000000 -308.000000
-224.000000 -1048.000000 -308.000000
-224.000000 -1050.000000 -308.000000
-224.000000 -1052.000000 -308.000000
-224.000000 -1054.000000 -308.000000
-224.000000 -1056.000000 -308.000000
-224.000000 -1058.000000 -308.000000
-224.000000 -1060.000000 -308.000000
-224.000000 -1062.000000 -308.000000
-224.000000 -1064.000000 -308.000000
-224.000000 -1066.000000 -308.000000
-224.000000 -1068.000000 -308.000000
-224.000000 -1070.000000 -308.000000
-224.000000 -1072.000000 -308.000000
-224.000000 -1074.000000 -308.000000
-224.000000 -1076.000000 -308.000000
-224.000000 -1078.000000 -308.000000
-224.000000 -1080.000000 -308.000000
-224.000000 -1082.000000 -308.000000
-224.000000 -1084.000000 -308.000000
-224.000000 -1086.000000 -308.000000
-224.000000 -1088.000000 -308.000000
-224.000000 -1090.000000 -308.000000
-224.000000 -1092.000000 -308.000000
-224.000000 -1094.000000 -308.000000
-224.000000 -1096.000000 -308.000000
-224.000000 -1098.000000 -308.000000
-224.000000 -1100.000000 -308.000000
-224.000000 -1102.000000 -308.000000
-224.000000 -1104.000000 -308.000000
-224.000000 -1106.000000 -308.000000
-224.000000 -1108.000000 -308.000000
-224.000000 -1110.000000 -308.000000
-224.000000 -1112.000000 -308.000000
-224.000000 -1114.000000 -308.000000
-224.000000 -1116.000000 -308.000000
-224.000000 -1118.000000 -308.000000
-224.000000 -1120.000000 -308.000000
-224.000000 -1122.000000 -308.000000
-224.000000 -1124.000000 -308.000000
-224.000000 -1126.000000 -308.000000
-224.000000 -1128.000000 -308.000000
-224.000000 -1130.000000 -308.000000
-224.000000 -1132.000000 -308.000000
-224.000000 -1134.000000 -308.000000
-224.000000 -1136.000000 -308.000000
-224.000000 -1138.000000 -308.000000
-224.000000 -1140.000000 -308.000000
-224.000000 -1142.000000 -308.000000
-224.000000 -1144.000000 -308.000000
-224.000000 -1146.000000 -308.000000
-224.000000 -1148.000000 -308.000000
-224.000000 -1150.000000 -308.000000
-224.000000 -1152.000000 -308.000000
-224.000000 -1154.000000 -308.000000
-224.000000 -1156.000000 -308.000000
-224.000000 -1158.000000 -308.000000
-224.000000 -1160.000000 -308.000000
-224.000000 -1162.000000 -308.000000
-224.000000 -1164.000000 -308.000000
-224.000000 -1166.000000 -308.000000
-224.000000 -1168.000000 -308.000000
-224.000000 -1170.000000 -308.000000
-224.000000 -1172.000000 -308.000000
-224.000000 -1174.000000 -308.000000
-224.000000 -1176.000000 -308.000000
-224.000000 -1178.000000 -308.000000
-224.000000 -1180.000000 -308.000000
-224.000000 -1182.000000 -308.000000
-224.000000 -1184.000000 -308.000000
-224.000000 -1186.000000 -308.000000
-224.000000 -1188.000000 -308.000000
-224.000000 -1190.000000 -308.000000
-224.000000 -1192.000000 -308.000000
-224.000000 -1194.000000 -308.000000
-224.000000 -1196.000000 -308.000000
-224.000000 -1198.000000 -308.000000
-224.000000 -1200.000000 -308.000000
-224.000000 -1202.000000 -308.000000
-224.000000 -1204.000000 -308.000000
-224.000000 -1206.000000 -308.000000
-224.000000 -1208.000000 -308.000000
-224.000000 -1210.000000 -308.000000
-224.000000 -1212.000000 -308.000000
-224.000000 -1214.000000 -308.000000
-224.000000 -1216.000000 -308.000000
-224.000000 -1218.000000 -308.000000
-224.000000 -1220.000000 -308.000000
-224.000000 -1222.000000 -308.000000
-224.000000 -1224.000000 -308.000000
-224.000000 -1226.000000 -308.000000
-224.000000 -1228.000000 -308.000000
-224.000000 -1230.000000 -308.000000
-224.000000 -1232.000000 -308.000000
-224.000000 -1234.000000 -308.000000
-224.000000 -1236.000000 -308.000000
-224.000000 -1238.000000 -308.000000
-224.000000 -1240.000000 -308.000000
-224.000000 -1242.000000 -308.000000
-224.000000 -1244.000000 -308.000000
-224.000000 -1246.000000 -308.000000
-224.000000 -1248.000000 -308.000000
-224.000000 -1250.000000 -308.000000
-224.000000 -1252.000000 -308.000000
-224.000000 -1254.000000 -308.000000
-224.000000 -1256.000000 -308.000000
-224.000000 -1258.000000 -308.000000
-224.000000 -1260.000000 -308.000000
-224.000000 -1262.000000 -308.000000
-224.000000 -1264.000000 -308.000000
-224.000000 -1266.000000 -308.000000
-224.000000 -1268.000000 -308.000000
-224.000000 -1270.000000 -308.000000
-224.000000 -1272.000000 -308.000000
-224.000000 -1274.000000 -308.000000
-224.000000 -1276.000000 -308.000000
-224.000000 -1278.000000 -308.000000
-224.000000 -1280.000000 -308.000000
-224.000000 -1282.000000 -308.000000
-224.000000 -1284.000000 -308.000000
-224.000000 -1286.000000 -308.000000
-224.000000 -1288.000000 -308.000000
-224.000000 -1290.000000 -308.000000
-224.000000 -1292.000000 -308.000000
-224.000000 -1294.000000 -308.000000
-224.000000 -1296.000000 -308.000000
-224.000000 -1298.000000 -308.000000
-224.000000 -1300.000000 -308.000000
-224.000000 -1302.000000 -308.000000
-224.000000 -1304.000000 -308.000000
-224.000000 -1306.000000 -308.000000
-224.000000 -1308.000000 -308.000000
-224.000000 -1310.000000 -308.000000
-224.000000 -1312.000000 -308.000000
-224.000000 -1314.000000 -308.000000
-224.000000 -1316.000000 -308.000000
-224.000000 -1318.000000 -308.000000
-224.000000 -1320.000000 -308.000000
-224.000000 -1322.000000 -308.000000
-224.000000 -1324.000000 -308.000000
-224.000000 -1326.000000 -308.000000
-224.000000 -1328.000000 -308.000000
-224.000000 -1330.000000 -308.000000
-224.000000 -1332.000000 -308.000000
-224.000000 -1334.000000 -308.000000
-224.000000 -1336.000000 -308.000000
-224.000000 -1338.000000 -308.000000
-224.000000 -1340.000000 -308.000000
-224.000000 -1342.000000 -308.000000
-224.000000 -1344.000000 -308.000000
-224.000000 -1346.000000 -308.000000
-224.000000 -1348.000000 -308.000000
-224.000000 -1350.000000 -308.000000
-224.000000 -1352.000000 -308.000000
-224.000000 -1354.000000 -308.000000
-224.000000 -1356.000000 -308.000000
-224.000000 -1358.000000 -308.000000
-224.000000 -1360.000000 -308.000000
-224.000000 -1362.000000 -308.000000
-224.000000 -1364.000000 -308.000000
-224.000000 -1366.000000 -308.000000
-224.000000 -1368.000000 -308.000000
-224.000000 -1370.000000 -308.000000
-224.000000 -1372.000000 -308.000000
-224.000000 -1374.000000 -308.000000
-224.000000 -1376.000000 -308.000000
-224.000000 -1378.000000 -308.000000
-224.000000 -1380.000000 -308.000000
-224.000000 -1382.000000 -308.000000
-224.000000 -1384.000000 -308.000000
-224.000000 -1386.000000 -308.000000
-224.000000 -1388.000000 -308.000000
-224.000000 -1390.000000 -308.000000
-224.000000 -1392.000000 -308.000000
-224.000000 -1394.000000 -308.000000
-224.000000 -1396.000000 -308.000000
-224.000000 -1398.000000 -308.000000
-224.000000 -1400.000000 -308.000000
-224.000000 -1402.000000 -308.000000
-224.000000 -1404.000000 -308.000000
-224.000000 -1406.000000 -308.000000
-224.000000 -1408.000000 -308.000000
-224.000000 -1410.000000 -308.000000
-224.000000 -1412.000000 -308.000000
-224.000000 -1414.000000 -308.000000
-224.000000 -1416.000000 -308.000000
-224.000000 -1418.000000 -308.000000
-224.000000 -1420.000000 -308.000000
-224.000000 -1422.000000 -308.000000
-224.000000 -1424.000000 -308.000000
-224.000000 -1426.000000 -308.000000
-224.000000 -1428.000000 -308.000000
-224.000000 -1430.000000 -308.000000
-224.000000 -1432.000000 -308.000000
-224.000000 -1434.000000 -308.000000
-224.000000 -1436.000000 -308.000000
-224.000000 -1438.000000 -308.000000
-224.000000 -1440.000000 -308.000000
-224.000000 -1442.000000 -308.000000
-224.000000 -1444.000000 -308.000000
-224.000000 -1446.000000 -308.000000
-224.000000 -1448.000000 -308.000000
-224.000000 -1450.000000 -308.000000
-224.000000 -1452.000000 -308.000000
-224.000000 -1454.000000 -308.000000
-224.000000 -1456.000000 -308.000000
-224.000000 -1458.000000 -308.000000
-224.000000 -1460.000000 -308.000000
-224.000000 -1462.000000 -308.000000
-224.000000 -1464.000000 -308.000000
-224.000000 -1466.000000 -308.000000
-224.000000 -1468.000000 -308.000000
-224.000000 -1472.000000 -308.000000
-224.000000 -1472.000000 -308.000000
-225.979899 -1472.282843 -308.000000
-227.959798 -1472.565685 -308.000000
-229.939697 -1472.848528 -308.000000
-231.919596 -1473.131371 -308.000000
-233.899495 -1473.414214 -308.000000
-235.879394 -1473.697056 -308.000000
-237.859293 -1473.979899 -308.000000
-239.839192 -1474.262742 -308.000000
-241.819091 -1474.545584 -308.000000
-243.798990 -1474.828427 -308.000000
-245.778889 -1475.111270 -308.000000
-247.758788 -1475.394113 -308.000000
-249.738687 -1475.676955 -308.000000
-251.718586 -1475.959798 -308.000000
-253.698485 -1476.242641 -308.000000
-255.678384 -1476.525483 -308.000000
-257.658283 -1476.808326 -308.000000
-259.638182 -1477.091169 -308.000000
-261.618081 -1477.374012 -308.000000
-263.597980 -1477.656854 -308.000000
-265.577879 -1477.939697 -308.000000
-267.557778 -1478.222540 -308.000000
-269.537677 -1478.505382 -308.000000
-271.517576 -1478.788225 -308.000000
-273.497475 -1479.071068 -308.000000
-275.477374 -1479.353911 -308.000000
-277.457273 -1479.636753 -308.000000
-279.437172 -1479.919596 -308.000000
-281.417071 -1480.202439 -308.000000
-283.396970 -1480.485281 -308.000000
-285.376869 -1480.768124 -308.000000
-287.356768 -1481.050967 -308.000000
-289.336667 -1481.333810 -308.000000
-291.316566 -1481.616652 -308.000000
-293.296465 -1481.899495 -308.000000
-295.276364 -1482.182338 -308.000000
-297.256263 -1482.465180 -308.000000
-299.236162 -1482.748023 -308.000000
-301.216061 -1483.030866 -308.000000
-303.195959 -1483.313708 -308.000000
-305.175858 -1483.596551 -308.000000
-307.155757 -1483.879394 -308.000000
-309.135656 -1484.162237 -308.000000
-311.115555 -1484.445079 -308.000000
-313.095454 -1484.727922 -308.000000
-315.075353 -1485.010765 -308.000000
-317.055252 -1485.293607 -308.000000
-319.035151 -1485.576450 -308.000000
-321.015050 -1485.859293 -308.000000
-322.994949 -1486.142136 -308.000000
-324.974848 -1486.424978 -308.000000
-326.954747 -1486.707821 -308.000000
-328.934646 -1486.990664 -308.000000
-330.914545 -1487.273506 -308.000000
-332.894444 -1487.556349 -308.000000
-334.874343 -1487.839192 -308.000000
-336.854242 -1488.122035 -308.000000
-338.834141 -1488.404877 -308.000000
-340.814040 -1488.687720 -308.000000
-342.793939 -1488.970563 -308.000000
-344.773838 -1489.253405 -308.000000
-346.753737 -1489.536248 -308.000000
-348.733636 -1489.819091 -308.000000
-350.713535 -1490.101934 -308.000000
-352.693434 -1490.384776 -308.000000
-354.673333 -1490.667619 -308.000000
-356.653232 -1490.950462 -308.000000
-358.633131 -1491.233304 -308.000000
-360.613030 -1491.516147 -308.000000
-362.592929 -1491.798990 -308.000000
-364.572828 -1492.081833 -308.000000
-366.552727 -1492.364675 -308.000000
-368.532626 -1492.647518 -308.000000
-370.512525 -1492.930361 -308.000000
-372.492424 -1493.213203 -308.000000
-374.472323 -1493.496046 -308.000000
-376.452222 -1493.778889 -308.000000
-378.432121 -1494.061732 -308.000000
-380.412020 -1494.344574 -308.000000
-382.391919 -1494.627417 -308.000000
-384.371818 -1494.910260 -308.000000
-386.351717 -1495.193102 -308.000000
-388.331616 -1495.475945 -308.000000
-390.311515 -1495.758788 -308.000000
-392.291414 -1496.041631 -308.000000
-394.271313 -1496.324473 -308.000000
-396.251212 -1496.607316 -308.000000
-398.231111 -1496.890159 -308.000000
-400.211010 -1497.173001 -308.000000
-402.190909 -1497.455844 -308.000000
