-256.000000 284.000000 204.000000
-256.000000 284.000000 204.000000
-256.136617 283.760919 202.019047
-256.273235 283.521839 200.038093
-256.409852 283.282758 198.057140
-256.546470 283.043678 196.076187
-256.683087 282.804597 194.095233
-256.819705 282.565517 192.114280
-256.956322 282.326436 190.133327
-257.092940 282.087355 188.152373
-257.229557 281.848275 186.171420
-257.366175 281.609194 184.190467
-257.502792 281.370114 182.209513
-257.639410 281.131033 180.228560
-257.776027 280.891953 178.247607
-257.912645 280.652872 176.266653
-258.049262 280.413791 174.285700
-258.185880 280.174711 172.304747
-258.322497 279.935630 170.323793
-258.459114 279.696550 168.342840
-258.595732 279.457469 166.361886
-258.732349 279.218388 164.380933
-258.868967 278.979308 162.399980
-259.005584 278.740227 160.419026
-259.142202 278.501147 158.438073
-259.278819 278.262066 156.457120
-259.415437 278.022986 154.476166
-259.552054 277.783905 152.495213
-259.688672 277.544824 150.514260
-259.825289 277.305744 148.533306
-259.961907 277.066663 146.552353
-260.098524 276.827583 144.571400
-260.235142 276.588502 142.590446
-260.371759 276.349422 140.609493
-260.508377 276.110341 138.628540
-260.644994 275.871260 136.647586
-260.781612 275.632180 134.666633
-260.918229 275.393099 132.685680
-261.054846 275.154019 130.704726
-261.191464 274.914938 128.723773
-261.328081 274.675858 126.742820
-261.464699 274.436777 124.761866
-261.601316 274.197696 122.780913
-261.737934 273.958616 120.799960
-261.874551 273.719535 118.819006
-262.011169 273.480455 116.838053
-262.147786 273.241374 114.857100
-262.284404 273.002294 112.876146
-262.421021 272.763213 110.895193
-262.557639 272.524132 108.914240
-262.694256 272.285052 106.933286
-262.830874 272.045971 104.952333
-262.967491 271.806891 102.971380
-263.104109 271.567810 100.990426
-263.240726 271.328729 99.009473
-263.377343 271.089649 97.028520
-263.513961 270.850568 95.047566
-263.650578 270.611488 93.066613
-263.787196 270.372407 91.085659
-263.923813 270.133327 89.104706
-264.060431 269.894246 87.123753
-264.197048 269.655165 85.142799
-264.333666 269.416085 83.161846
-264.470283 269.177004 81.180893
-264.606901 268.937924 79.199939
-264.743518 268.698843 77.218986
-264.880136 268.459763 75.238033
-265.016753 268.220682 73.257079
-265.153371 267.981601 71.276126
-265.289988 267.742521 69.295173
-265.426606 267.503440 67.314219
-265.563223 267.264360 65.333266
-265.699841 267.025279 63.352313
-265.836458 266.786199 61.371359
-265.973075 266.547118 59.390406
-266.109693 266.308037 57.409453
-266.246310 266.068957 55.428499
-266.382928 265.829876 53.447546
-266.519545 265.590796 51.466593
-266.656163 265.351715 49.485639
-266.792780 265.112635 47.504686
-266.929398 264.873554 45.523733
-267.066015 264.634473 43.542779
-267.202633 264.395393 41.561826
-267.339250 264.156312 39.580873
-267.475868 263.917232 37.599919
-267.612485 263.678151 35.618966
-267.749103 263.439070 33.638013
-267.885720 263.199990 31.657059
-268.022338 262.960909 29.676106
-268.158955 262.721829 27.695153
-268.295572 262.482748 25.714199
-268.432190 262.243668 23.733246
-268.568807 262.004587 21.752293
-268.705425 261.765506 19.771339
-268.842042 261.526426 17.790386
-268.978660 261.287345 15.809432
-269.115277 261.048265 13.828479
-269.251895 260.809184 11.847526
-269.388512 260.570104 9.866572
-269.525130 260.331023 7.885619
-269.661747 260.091942 5.904666
-269.798365 259.852862 3.923712
-269.934982 259.613781 1.942759
-270.071600 259.374701 -0.038194
-270.208217 259.135620 -2.019148
-270.344835 258.896540 -4.000101
-270.481452 258.657459 -5.981054
-270.618069 258.418378 -7.962008
-270.754687 258.179298 -9.942961
-270.891304 257.940217 -11.923914
-271.027922 257.701137 -13.904868
-271.164539 257.462056 -15.885821
-271.301157 257.222976 -17.866774
-271.437774 256.983895 -19.847728
-271.574392 256.744814 -21.828681
-271.711009 256.505734 -23.809634
-271.847627 256.266653 -25.790588
-272.000000 256.000000 -28.000000
-272.000000 256.000000 -28.000000
-272.124757 254.003895 -28.000000
-272.249513 252.007790 -28.000000
-272.374270 250.011685 -28.000000
-272.499026 248.015579 -28.000000
-272.623783 246.019474 -28.000000
-272.748539 244.023369 -28.000000
-272.873296 242.027264 -28.000000
-272.998053 240.031159 -28.000000
-273.122809 238.035054 -28.000000
-273.247566 236.038948 -28.000000
-273.372322 234.042843 -28.000000
-273.497079 232.046738 -28.000000
-273.621835 230.050633 -28.000000
-273.746592 228.054528 -28.000000
-273.871349 226.058423 -28.000000
-273.996105 224.062317 -28.000000
-274.120862 222.066212 -28.000000
-274.245618 220.070107 -28.000000
-274.370375 218.074002 -28.000000
-274.495131 216.077897 -28.000000
-274.619888 214.081792 -28.000000
-274.744645 212.085687 -28.000000
-274.869401 210.089581 -28.000000
-274.994158 208.093476 -28.000000
-275.118914 206.097371 -28.000000
-275.243671 204.101266 -28.000000
-275.368427 202.105161 -28.000000
-275.493184 200.109056 -28.000000
-275.617941 198.112950 -28.000000
-275.742697 196.116845 -28.000000
-275.867454 194.120740 -28.000000
-275.992210 192.124635 -28.000000
-276.116967 190.128530 -28.000000
-276.241723 188.132425 -28.000000
-276.366480 186.136320 -28.000000
-276.491237 184.140214 -28.000000
-276.615993 182.144109 -28.000000
-276.740750 180.148004 -28.000000
-276.865506 178.151899 -28.000000
-276.990263 176.155794 -28.000000
-277.115019 174.159689 -28.000000
-277.239776 172.163583 -28.000000
-277.364533 170.167478 -28.000000
-277.489289 168.171373 -28.000000
-277.614046 166.175268 -28.000000
-277.738802 164.179163 -28.000000
-277.863559 162.183058 -28.000000
-277.988315 160.186952 -28.000000
-278.113072 158.190847 -28.000000
-278.237829 156.194742 -28.000000
-278.362585 154.198637 -28.000000
-278.487342 152.202532 -28.000000
-278.612098 150.206427 -28.000000
-278.736855 148.210322 -28.000000
-278.861611 146.214216 -28.000000
-278.986368 144.218111 -28.000000
-279.111125 142.222006 -28.000000
-279.235881 140.225901 -28.000000
-279.360638 138.229796 -28.000000
-279.485394 136.233691 -28.000000
-279.610151 134.237585 -28.000000
-279.734907 132.241480 -28.000000
-279.859664 130.245375 -28.000000
-279.984421 128.249270 -28.000000
-280.109177 126.253165 -28.000000
-280.233934 124.257060 -28.000000
-280.358690 122.260954 -28.000000
-280.483447 120.264849 -28.000000
-280.608203 118.268744 -28.000000
-280.732960 116.272639 -28.000000
-280.857717 114.276534 -28.000000
-280.982473 112.280429 -28.000000
-281.107230 110.284324 -28.000000
-281.231986 108.288218 -28.000000
-281.356743 106.292113 -28.000000
-281.481499 104.296008 -28.000000
-281.606256 102.299903 -28.000000
-281.731013 100.303798 -28.000000
-281.855769 98.307693 -28.000000
-281.980526 96.311587 -28.000000
-282.105282 94.315482 -28.000000
-282.230039 92.319377 -28.000000
-282.354796 90.323272 -28.000000
-282.479552 88.327167 -28.000000
-282.604309 86.331062 -28.000000
-282.729065 84.334957 -28.000000
-282.853822 82.338851 -28.000000
-282.978578 80.342746 -28.000000
-283.103335 78.346641 -28.000000
-283.228092 76.350536 -28.000000
-283.352848 74.354431 -28.000000
-283.477605 72.358326 -28.000000
-283.602361 70.362220 -28.000000
-283.727118 68.366115 -28.000000
-283.851874 66.370010 -28.000000
-283.976631 64.373905 -28.000000
-284.101388 62.377800 -28.000000
-284.226144 60.381695 -28.000000
-284.350901 58.385589 -28.000000
-284.475657 56.389484 -28.000000
-284.600414 54.393379 -28.000000
-284.725170 52.397274 -28.000000
-284.849927 50.401169 -28.000000
-284.974684 48.405064 -28.000000
-285.099440 46.408959 -28.000000
-285.224197 44.412853 -28.000000
-285.348953 42.416748 -28.000000
-285.473710 40.420643 -28.000000
-285.598466 38.424538 -28.000000
-285.723223 36.428433 -28.000000
-285.847980 34.432328 -28.000000
-285.972736 32.436222 -28.000000
-286.097493 30.440117 -28.000000
-286.222249 28.444012 -28.000000
-286.347006 26.447907 -28.000000
-286.471762 24.451802 -28.000000
-286.596519 22.455697 -28.000000
-286.721276 20.459591 -28.000000
-286.846032 18.463486 -28.000000
-286.970789 16.467381 -28.000000
-287.095545 14.471276 -28.000000
-287.220302 12.475171 -28.000000
-287.345058 10.479066 -28.000000
-287.469815 8.482961 -28.000000
-287.594572 6.486855 -28.000000
-287.719328 4.490750 -28.000000
-287.844085 2.494645 -28.000000
-288.000000 0.000000 -28.000000
-288.000000 0.000000 -28.000000
-288.000000 0.000000 -26.000000
-288.000000 0.000000 -24.000000
-288.000000 0.000000 -22.000000
-288.000000 0.000000 -20.000000
-288.000000 0.000000 -18.000000
-288.000000 0.000000 -16.000000
-288.000000 0.000000 -14.000000
-288.000000 0.000000 -12.000000
-288.000000 0.000000 -10.000000
-288.000000 0.000000 -8.000000
-288.000000 0.000000 -6.000000
-288.000000 0.000000 -4.000000
-288.000000 0.000000 -2.000000
-288.000000 0.000000 0.000000
-288.000000 0.000000 2.000000
-288.000000 0.000000 4.000000
-288.000000 0.000000 6.000000
-288.000000 0.000000 8.000000
-288.000000 0.000000 10.000000
-288.000000 0.000000 12.000000
-288.000000 0.000000 14.000000
-288.000000 0.000000 16.000000
-288.000000 0.000000 18.000000
-288.000000 0.000000 20.000000
-288.000000 0.000000 22.000000
-288.000000 0.000000 24.000000
-288.000000 0.000000 26.000000
-288.000000 0.000000 28.000000
-288.000000 0.000000 30.000000
-288.000000 0.000000 32.000000
-288.000000 0.000000 34.000000
-288.000000 0.000000 36.000000
-288.000000 0.000000 38.000000
-288.000000 0.000000 40.000000
-288.000000 0.000000 42.000000
-288.000000 0.000000 44.000000
-288.000000 0.000000 46.000000
-288.000000 0.000000 48.000000
-288.000000 0.000000 50.000000
-288.000000 0.000000 52.000000
-288.000000 0.000000 54.000000
-288.000000 0.000000 56.000000
-288.000000 0.000000 58.000000
-288.000000 0.000000 60.000000
-288.000000 0.000000 62.000000
-288.000000 0.000000 64.000000
-288.000000 0.000000 66.000000
-288.000000 0.000000 68.000000
-288.000000 0.000000 70.000000
-288.000000 0.000000 72.000000
-288.000000 0.000000 74.000000
-288.000000 0.000000 76.000000
-288.000000 0.000000 78.000000
-288.000000 0.000000 80.000000
-288.000000 0.000000 82.000000
-288.000000 0.000000 84.000000
-288.000000 0.000000 86.000000
-288.000000 0.000000 88.000000
-288.000000 0.000000 90.000000
-288.000000 0.000000 92.000000
-288.000000 0.000000 94.000000
-288.000000 0.000000 96.000000
-288.000000 0.000000 98.000000
-288.000000 0.000000 100.000000
-288.000000 0.000000 102.000000
-288.000000 0.000000 104.000000
-288.000000 0.000000 106.000000
-288.000000 0.000000 108.000000
-288.000000 0.000000 110.000000
-288.000000 0.000000 112.000000
-288.000000 0.000000 114.000000
-288.000000 0.000000 116.000000
-288.000000 0.000000 118.000000
-288.000000 0.000000 120.000000
-288.000000 0.000000 122.000000
-288.000000 0.000000 124.000000
-288.000000 0.000000 126.000000
-288.000000 0.000000 128.000000
-288.000000 0.000000 130.000000
-288.000000 0.000000 132.000000
-288.000000 0.000000 134.000000
-288.000000 0.000000 136.000000
-288.000000 0.000000 138.000000
-288.000000 0.000000 140.000000
-288.000000 0.000000 142.000000
-288.000000 0.000000 144.000000
-288.000000 0.000000 146.000000
-288.000000 0.000000 148.000000
-288.000000 0.000000 150.000000
-288.000000 0.000000 152.000000
-288.000000 0.000000 154.000000
-288.000000 0.000000 156.000000
-288.000000 0.000000 158.000000
-288.000000 0.000000 160.000000
-288.000000 0.000000 162.000000
-288.000000 0.000000 164.000000
-288.000000 0.000000 166.000000
-288.000000 0.000000 168.000000
-288.000000 0.000000 170.000000
-288.000000 0.000000 172.000000
-288.000000 0.000000 174.000000
-288.000000 0.000000 176.000000
-288.000000 0.000000 178.000000
-288.000000 0.000000 180.000000
-288.000000 0.000000 182.000000
-288.000000 0.000000 184.000000
