-1161.829814 -2978.208518 -15.980741
-1163.796305 -2977.843943 -15.980741
-1165.762796 -2977.479369 -15.980741
-1167.729286 -2977.114795 -15.980741
-1169.695777 -2976.750221 -15.980741
-1171.662268 -2976.385647 -15.980741
-1173.628758 -2976.021073 -15.980741
-1175.595249 -2975.656499 -15.980741
-1177.561740 -2975.291925 -15.980741
-1179.528231 -2974.927351 -15.980741
-1181.494721 -2974.562776 -15.980741
-1183.461212 -2974.198202 -15.980741
-1185.427703 -2973.833628 -15.980741
-1187.394193 -2973.469054 -15.980741
-1189.360684 -2973.104480 -15.980741
-1191.327175 -2972.739906 -15.980741
-1193.293666 -2972.375332 -15.980741
-1195.260156 -2972.010758 -15.980741
-1197.226647 -2971.646183 -15.980741
-1199.193138 -2971.281609 -15.980741
-1201.159628 -2970.917035 -15.980741
-1203.126119 -2970.552461 -15.980741
-1205.092610 -2970.187887 -15.980741
-1207.059101 -2969.823313 -15.980741
-1209.025591 -2969.458739 -15.980741
-1211.500000 -2969.000000 -15.980741
-1211.500000 -2969.000000 -15.980741
-1213.485433 -2968.759049 -15.980741
-1215.470865 -2968.518099 -15.980741
-1217.456298 -2968.277148 -15.980741
-1219.441731 -2968.036198 -15.980741
-1221.427163 -2967.795247 -15.980741
-1223.412596 -2967.554297 -15.980741
-1225.398029 -2967.313346 -15.980741
-1227.383461 -2967.072395 -15.980741
-1229.368894 -2966.831445 -15.980741
-1231.354327 -2966.590494 -15.980741
-1233.339759 -2966.349544 -15.980741
-1235.325192 -2966.108593 -15.980741
-1237.310625 -2965.867643 -15.980741
-1239.296057 -2965.626692 -15.980741
-1241.281490 -2965.385742 -15.980741
-1243.266922 -2965.144791 -15.980741
-1245.252355 -2964.903840 -15.980741
-1247.237788 -2964.662890 -15.980741
-1249.223220 -2964.421939 -15.980741
-1251.208653 -2964.180989 -15.980741
-1253.194086 -2963.940038 -15.980741
-1255.179518 -2963.699088 -15.980741
-1257.164951 -2963.458137 -15.980741
-1259.150384 -2963.217186 -15.980741
-1261.135816 -2962.976236 -15.980741
-1263.121249 -2962.735285 -15.980741
-1265.106682 -2962.494335 -15.980741
-1267.092114 -2962.253384 -15.980741
-1269.077547 -2962.012434 -15.980741
-1271.062980 -2961.771483 -15.980741
-1273.048412 -2961.530532 -15.980741
-1275.033845 -2961.289582 -15.980741
-1277.019278 -2961.048631 -15.980741
-1279.004710 -2960.807681 -15.980741
-1280.990143 -2960.566730 -15.980741
-1282.975576 -2960.325780 -15.980741
-1284.961008 -2960.084829 -15.980741
-1286.946441 -2959.843879 -15.980741
-1288.931874 -2959.602928 -15.980741
-1290.917306 -2959.361977 -15.980741
-1292.902739 -2959.121027 -15.980741
-1294.888171 -2958.880076 -15.980741
-1296.873604 -2958.639126 -15.980741
-1298.859037 -2958.398175 -15.980741
-1300.844469 -2958.157225 -15.980741
-1302.829902 -2957.916274 -15.980741
-1304.815335 -2957.675323 -15.980741
-1306.800767 -2957.434373 -15.980741
-1308.786200 -2957.193422 -15.980741
-1310.771633 -2956.952472 -15.980741
-1314.500000 -2956.500000 -15.980741
-1314.500000 -2956.500000 -15.980741
-1316.499491 -2956.532424 -15.949337
-1318.498981 -2956.564848 -15.917934
-1320.498472 -2956.597273 -15.886530
-1322.497962 -2956.629697 -15.855126
-1324.497453 -2956.662121 -15.823722
-1326.496943 -2956.694545 -15.792318
-1328.496434 -2956.726969 -15.760915
-1330.495924 -2956.759393 -15.729511
-1332.495415 -2956.791818 -15.698107
-1334.494906 -2956.824242 -15.666703
-1336.494396 -2956.856666 -15.635300
-1338.493887 -2956.889090 -15.603896
-1340.493377 -2956.921514 -15.572492
-1342.492868 -2956.953938 -15.541088
-1344.492358 -2956.986363 -15.509684
-1346.491849 -2957.018787 -15.478281
-1348.491339 -2957.051211 -15.446877
-1350.490830 -2957.083635 -15.415473
-1352.490321 -2957.116059 -15.384069
-1354.489811 -2957.148483 -15.352666
-1356.489302 -2957.180908 -15.321262
-1358.488792 -2957.213332 -15.289858
-1360.488283 -2957.245756 -15.258454
-1362.487773 -2957.278180 -15.227050
-1364.487264 -2957.310604 -15.195647
-1366.486754 -2957.343028 -15.164243
-1368.486245 -2957.375453 -15.132839
-1370.485736 -2957.407877 -15.101435
-1372.485226 -2957.440301 -15.070032
-1374.484717 -2957.472725 -15.038628
-1376.484207 -2957.505149 -15.007224
-1378.483698 -2957.537573 -14.975820
-1380.483188 -2957.569998 -14.944417
-1382.482679 -2957.602422 -14.913013
-1384.482169 -2957.634846 -14.881609
-1386.481660 -2957.667270 -14.850205
-1388.481151 -2957.699694 -14.818801
-1390.480641 -2957.732119 -14.787398
-1392.480132 -2957.764543 -14.755994
-1394.479622 -2957.796967 -14.724590
-1396.479113 -2957.829391 -14.693186
-1398.478603 -2957.861815 -14.661783
-1400.478094 -2957.894239 -14.630379
-1402.477584 -2957.926664 -14.598975
-1404.477075 -2957.959088 -14.567571
-1406.476565 -2957.991512 -14.536167
-1408.476056 -2958.023936 -14.504764
-1410.475547 -2958.056360 -14.473360
-1412.475037 -2958.088784 -14.441956
-1414.474528 -2958.121209 -14.410552
-1416.474018 -2958.153633 -14.379149
-1418.473509 -2958.186057 -14.347745
-1420.472999 -2958.218481 -14.316341
-1422.472490 -2958.250905 -14.284937
-1424.471980 -2958.283329 -14.253533
-1426.471471 -2958.315754 -14.222130
-1428.470962 -2958.348178 -14.190726
-1430.470452 -2958.380602 -14.159322
-1432.469943 -2958.413026 -14.127918
-1434.469433 -2958.445450 -14.096515
-1436.468924 -2958.477874 -14.065111
-1438.468414 -2958.510299 -14.033707
-1440.467905 -2958.542723 -14.002303
-1442.467395 -2958.575147 -13.970900
-1444.466886 -2958.607571 -13.939496
-1446.466377 -2958.639995 -13.908092
-1448.465867 -2958.672419 -13.876688
-1450.465358 -2958.704844 -13.845284
-1452.464848 -2958.737268 -13.813881
-1454.464339 -2958.769692 -13.782477
-1456.463829 -2958.802116 -13.751073
-1458.463320 -2958.834540 -13.719669
-1460.462810 -2958.866964 -13.688266
-1462.462301 -2958.899389 -13.656862
-1464.461792 -2958.931813 -13.625458
-1466.461282 -2958.964237 -13.594054
-1468.460773 -2958.996661 -13.562650
-1470.460263 -2959.029085 -13.531247
-1472.459754 -2959.061510 -13.499843
-1474.459244 -2959.093934 -13.468439
-1476.458735 -2959.126358 -13.437035
-1478.458225 -2959.158782 -13.405632
-1480.457716 -2959.191206 -13.374228
-1482.457207 -2959.223630 -13.342824
-1484.456697 -2959.256055 -13.311420
-1486.456188 -2959.288479 -13.280016
-1488.455678 -2959.320903 -13.248613
-1490.455169 -2959.353327 -13.217209
-1492.454659 -2959.385751 -13.185805
-1494.454150 -2959.418175 -13.154401
-1496.453640 -2959.450600 -13.122998
-1498.453131 -2959.483024 -13.091594
-1500.452622 -2959.515448 -13.060190
-1502.452112 -2959.547872 -13.028786
-1504.451603 -2959.580296 -12.997382
-1506.451093 -2959.612720 -12.965979
-1508.450584 -2959.645145 -12.934575
-1510.450074 -2959.677569 -12.903171
-1512.449565 -2959.709993 -12.871767
-1514.449055 -2959.742417 -12.840364
-1516.448546 -2959.774841 -12.808960
-1518.448037 -2959.807265 -12.777556
-1520.447527 -2959.839690 -12.746152
-1522.447018 -2959.872114 -12.714749
-1524.446508 -2959.904538 -12.683345
-1526.445999 -2959.936962 -12.651941
-1528.445489 -2959.969386 -12.620537
-1530.444980 -2960.001810 -12.589133
-1532.444470 -2960.034235 -12.557730
-1534.443961 -2960.066659 -12.526326
-1536.443452 -2960.099083 -12.494922
-1538.442942 -2960.131507 -12.463518
-1540.442433 -2960.163931 -12.432115
-1542.441923 -2960.196356 -12.400711
-1544.441414 -2960.228780 -12.369307
-1546.440904 -2960.261204 -12.337903
-1548.440395 -2960.293628 -12.306499
-1550.439885 -2960.326052 -12.275096
-1552.439376 -2960.358476 -12.243692
-1554.438866 -2960.390901 -12.212288
-1556.438357 -2960.423325 -12.180884
-1558.437848 -2960.455749 -12.149481
-1560.437338 -2960.488173 -12.118077
-1562.436829 -2960.520597 -12.086673
-1564.436319 -2960.553021 -12.055269
-1566.435810 -2960.585446 -12.023865
-1568.435300 -2960.617870 -11.992462
-1570.434791 -2960.650294 -11.961058
-1572.434281 -2960.682718 -11.929654
-1574.433772 -2960.715142 -11.898250
-1576.433263 -2960.747566 -11.866847
-1578.432753 -2960.779991 -11.835443
-1580.432244 -2960.812415 -11.804039
-1582.431734 -2960.844839 -11.772635
-1584.431225 -2960.877263 -11.741231
-1586.430715 -2960.909687 -11.709828
-1588.430206 -2960.942111 -11.678424
-1590.429696 -2960.974536 -11.647020
-1592.429187 -2961.006960 -11.615616
-1594.428678 -2961.039384 -11.584213
-1596.428168 -2961.071808 -11.552809
-1598.427659 -2961.104232 -11.521405
-1600.427149 -2961.136656 -11.490001
-1602.426640 -2961.169081 -11.458598
-1604.426130 -2961.201505 -11.427194
-1606.425621 -2961.233929 -11.395790
-1608.425111 -2961.266353 -11.364386
-1610.424602 -2961.298777 -11.332982
-1612.424093 -2961.331202 -11.301579
-1614.423583 -2961.363626 -11.270175
-1616.423074 -2961.396050 -11.238771
-1618.422564 -2961.428474 -11.207367
-1620.422055 -2961.460898 -11.175964
-1622.421545 -2961.493322 -11.144560
-1624.421036 -2961.525747 -11.113156
-1626.420526 -2961.558171 -11.081752
-1628.420017 -2961.590595 -11.050348
-1630.419508 -2961.623019 -11.018945
-1632.418998 -2961.655443 -10.987541
-1634.418489 -2961.687867 -10.956137
-1636.417979 -2961.720292 -10.924733
-1638.417470 -2961.752716 -10.893330
-1640.416960 -2961.785140 -10.861926
-1642.416451 -2961.817564 -10.830522
-1644.415941 -2961.849988 -10.799118
-1646.415432 -2961.882412 -10.767714
-1648.414923 -2961.914837 -10.736311
-1650.414413 -2961.947261 -10.704907
-1652.413904 -2961.979685 -10.673503
-1654.413394 -2962.012109 -10.642099
-1656.412885 -2962.044533 -10.610696
-1658.412375 -2962.076957 -10.579292
-1660.411866 -2962.109382 -10.547888
-1662.411356 -2962.141806 -10.516484
-1664.410847 -2962.174230 -10.485080
-1666.410338 -2962.206654 -10.453677
-1668.409828 -2962.239078 -10.422273
-1670.409319 -2962.271502 -10.390869
-1672.408809 -2962.303927 -10.359465
-1674.408300 -2962.336351 -10.328062
-1676.407790 -2962.368775 -10.296658
-1678.407281 -2962.401199 -10.265254
-1680.406771 -2962.433623 -10.233850
-1682.406262 -2962.466047 -10.202447
-1684.405753 -2962.498472 -10.171043
-1686.405243 -2962.530896 -10.139639
-1688.404734 -2962.563320 -10.108235
-1690.404224 -2962.595744 -10.076831
-1692.403715 -2962.628168 -10.045428
-1694.403205 -2962.660593 -10.014024
-1696.402696 -2962.693017 -9.982620
-1698.402186 -2962.725441 -9.951216
-1700.401677 -2962.757865 -9.919813
-1702.401168 -2962.790289 -9.888409
-1704.400658 -2962.822713 -9.857005
-1706.400149 -2962.855138 -9.825601
-1708.399639 -2962.887562 -9.794197
-1710.399130 -2962.919986 -9.762794
-1712.398620 -2962.952410 -9.731390
-1714.398111 -2962.984834 -9.699986
-1716.397601 -2963.017258 -9.668582
-1718.397092 -2963.049683 -9.637179
-1720.396582 -2963.082107 -9.605775
-1722.396073 -2963.114531 -9.574371
-1724.395564 -2963.146955 -9.542967
-1726.395054 -2963.179379 -9.511563
-1728.394545 -2963.211803 -9.480160
-1730.394035 -2963.244228 -9.448756
-1732.393526 -2963.276652 -9.417352
-1734.393016 -2963.309076 -9.385948
-1736.392507 -2963.341500 -9.354545
-1738.391997 -2963.373924 -9.323141
-1740.391488 -2963.406348 -9.291737
-1742.390979 -2963.438773 -9.260333
-1744.390469 -2963.471197 -9.228930
-1746.389960 -2963.503621 -9.197526
-1748.389450 -2963.536045 -9.166122
-1750.388941 -2963.568469 -9.134718
-1752.388431 -2963.600893 -9.103314
-1754.387922 -2963.633318 -9.071911
-1756.387412 -2963.665742 -9.040507
-1758.386903 -2963.698166 -9.009103
-1760.386394 -2963.730590 -8.977699
-1762.385884 -2963.763014 -8.946296
-1764.385375 -2963.795439 -8.914892
-1766.384865 -2963.827863 -8.883488
-1768.384356 -2963.860287 -8.852084
-1770.383846 -2963.892711 -8.820680
-1772.383337 -2963.925135 -8.789277
-1774.382827 -2963.957559 -8.757873
-1776.382318 -2963.989984 -8.726469
-1778.381809 -2964.022408 -8.695065
-1780.381299 -2964.054832 -8.663662
-1782.380790 -2964.087256 -8.632258
-1784.380280 -2964.119680 -8.600854
-1786.379771 -2964.152104 -8.569450
-1788.379261 -2964.184529 -8.538046
-1790.378752 -2964.216953 -8.506643
-1792.378242 -2964.249377 -8.475239
-1794.377733 -2964.281801 -8.443835
-1796.377224 -2964.314225 -8.412431
-1798.376714 -2964.346649 -8.381028
-1800.376205 -2964.379074 -8.349624
-1802.375695 -2964.411498 -8.318220
-1804.375186 -2964.443922 -8.286816
-1806.374676 -2964.476346 -8.255412
-1808.374167 -2964.508770 -8.224009
-1810.373657 -2964.541194 -8.192605
-1812.373148 -2964.573619 -8.161201
-1814.372639 -2964.606043 -8.129797
-1816.372129 -2964.638467 -8.098394
-1818.371620 -2964.670891 -8.066990
-1820.371110 -2964.703315 -8.035586
-1822.370601 -2964.735739 -8.004182
-1824.370091 -2964.768164 -7.972779
-1826.369582 -2964.800588 -7.941375
-1828.369072 -2964.833012 -7.909971
-1830.368563 -2964.865436 -7.878567
-1832.368054 -2964.897860 -7.847163
-1834.367544 -2964.930284 -7.815760
-1836.367035 -2964.962709 -7.784356
-1838.366525 -2964.995133 -7.752952
-1840.366016 -2965.027557 -7.721548
-1842.365506 -2965.059981 -7.690145
-1844.364997 -2965.092405 -7.658741
-1846.364487 -2965.124830 -7.627337
-1848.363978 -2965.157254 -7.595933
-1850.363469 -2965.189678 -7.564529
-1852.362959 -2965.222102 -7.533126
-1854.362450 -2965.254526 -7.501722
-1856.361940 -2965.286950 -7.470318
-1858.361431 -2965.319375 -7.438914
-1860.360921 -2965.351799 -7.407511
-1862.360412 -2965.384223 -7.376107
-1864.359902 -2965.416647 -7.344703
-1866.359393 -2965.449071 -7.313299
-1868.358883 -2965.481495 -7.281895
-1870.358374 -2965.513920 -7.250492
-1872.357865 -2965.546344 -7.219088
-1874.357355 -2965.578768 -7.187684
-1876.356846 -2965.611192 -7.156280
-1878.356336 -2965.643616 -7.124877
-1880.355827 -2965.676040 -7.093473
-1882.355317 -2965.708465 -7.062069
-1884.354808 -2965.740889 -7.030665
-1886.354298 -2965.773313 -6.999261
-1888.353789 -2965.805737 -6.967858
-1890.353280 -2965.838161 -6.936454
-1892.352770 -2965.870585 -6.905050
-1894.352261 -2965.903010 -6.873646
-1896.351751 -2965.935434 -6.842243
-1898.351242 -2965.967858 -6.810839
-1900.350732 -2966.000282 -6.779435
-1902.350223 -2966.032706 -6.748031
-1904.349713 -2966.065130 -6.716628
-1906.349204 -2966.097555 -6.685224
-1908.348695 -2966.129979 -6.653820
-1910.348185 -2966.162403 -6.622416
-1912.347676 -2966.194827 -6.591012
-1914.347166 -2966.227251 -6.559609
-1916.346657 -2966.259676 -6.528205
-1918.346147 -2966.292100 -6.496801
-1920.345638 -2966.324524 -6.465397
-1922.345128 -2966.356948 -6.433994
-1924.344619 -2966.389372 -6.402590
-1926.344110 -2966.421796 -6.371186
-1928.343600 -2966.454221 -6.339782
-1930.343091 -2966.486645 -6.308378
-1932.342581 -2966.519069 -6.276975
-1934.342072 -2966.551493 -6.245571
-1936.341562 -2966.583917 -6.214167
-1938.341053 -2966.616341 -6.182763
-1940.340543 -2966.648766 -6.151360
-1942.340034 -2966.681190 -6.119956
-1944.339525 -2966.713614 -6.088552
-1946.339015 -2966.746038 -6.057148
-1948.338506 -2966.778462 -6.025744
-1950.337996 -2966.810886 -5.994341
-1952.337487 -2966.843311 -5.962937
-1954.336977 -2966.875735 -5.931533
-1956.336468 -2966.908159 -5.900129
-1958.335958 -2966.940583 -5.868726
-1960.335449 -2966.973007 -5.837322
-1962.334940 -2967.005431 -5.805918
-1964.334430 -2967.037856 -5.774514
-1966.333921 -2967.070280 -5.743111
-1968.333411 -2967.102704 -5.711707
-1970.332902 -2967.135128 -5.680303
-1972.332392 -2967.167552 -5.648899
-1974.331883 -2967.199976 -5.617495
-1976.331373 -2967.232401 -5.586092
-1978.330864 -2967.264825 -5.554688
-1980.330355 -2967.297249 -5.523284
-1982.329845 -2967.329673 -5.491880
-1984.329336 -2967.362097 -5.460477
-1986.328826 -2967.394522 -5.429073
-1988.328317 -2967.426946 -5.397669
-1990.327807 -2967.459370 -5.366265
-1992.327298 -2967.491794 -5.334861
-1994.326788 -2967.524218 -5.303458
-1996.326279 -2967.556642 -5.272054
-1998.325770 -2967.589067 -5.240650
-2000.325260 -2967.621491 -5.209246
-2002.324751 -2967.653915 -5.177843
-2004.324241 -2967.686339 -5.146439
-2006.323732 -2967.718763 -5.115035
-2008.323222 -2967.751187 -5.083631
-2010.322713 -2967.783612 -5.052227
-2012.322203 -2967.816036 -5.020824
-2014.321694 -2967.848460 -4.989420
-2016.321184 -2967.880884 -4.958016
-2018.320675 -2967.913308 -4.926612
-2020.320166 -2967.945732 -4.895209
-2022.319656 -2967.978157 -4.863805
-2024.319147 -2968.010581 -4.832401
-2026.318637 -2968.043005 -4.800997
-2028.318128 -2968.075429 -4.769593
-2030.317618 -2968.107853 -4.738190
-2032.317109 -2968.140277 -4.706786
-2034.316599 -2968.172702 -4.675382
-2036.316090 -2968.205126 -4.643978
-2038.315581 -2968.237550 -4.612575
-2040.315071 -2968.269974 -4.581171
-2042.314562 -2968.302398 -4.549767
-2044.314052 -2968.334822 -4.518363
-2046.313543 -2968.367247 -4.486960
-2048.313033 -2968.399671 -4.455556
-2050.312524 -2968.432095 -4.424152
-2052.312014 -2968.464519 -4.392748
-2054.311505 -2968.496943 -4.361344
-2056.310996 -2968.529367 -4.329941
-2058.310486 -2968.561792 -4.298537
-2060.309977 -2968.594216 -4.267133
-2062.309467 -2968.626640 -4.235729
-2064.308958 -2968.659064 -4.204326
-2066.308448 -2968.691488 -4.172922
-2068.307939 -2968.723913 -4.141518
-2070.307429 -2968.756337 -4.110114
-2072.306920 -2968.788761 -4.078710
-2074.306411 -2968.821185 -4.047307
-2076.305901 -2968.853609 -4.015903
-2078.305392 -2968.886033 -3.984499
-2080.304882 -2968.918458 -3.953095
-2082.304373 -2968.950882 -3.921692
-2084.303863 -2968.983306 -3.890288
-2086.303354 -2969.015730 -3.858884
-2088.302844 -2969.048154 -3.827480
-2090.302335 -2969.080578 -3.796076
-2092.301826 -2969.113003 -3.764673
-2094.301316 -2969.145427 -3.733269
-2096.300807 -2969.177851 -3.701865
-2098.300297 -2969.210275 -3.670461
-2100.299788 -2969.242699 -3.639058
-2102.299278 -2969.275123 -3.607654
-2104.298769 -2969.307548 -3.576250
-2106.298259 -2969.339972 -3.544846
-2108.297750 -2969.372396 -3.513442
-2110.297241 -2969.404820 -3.482039
-2112.296731 -2969.437244 -3.450635
-2114.296222 -2969.469668 -3.419231
-2116.295712 -2969.502093 -3.387827
-2118.295203 -2969.534517 -3.356424
-2120.294693 -2969.566941 -3.325020
-2122.294184 -2969.599365 -3.293616
-2124.293674 -2969.631789 -3.262212
-2126.293165 -2969.664213 -3.230809
-2128.292656 -2969.696638 -3.199405
-2130.292146 -2969.729062 -3.168001
-2132.291637 -2969.761486 -3.136597
-2134.291127 -2969.793910 -3.105193
-2136.290618 -2969.826334 -3.073790
-2138.290108 -2969.858759 -3.042386
-2140.289599 -2969.891183 -3.010982
-2142.289089 -2969.923607 -2.979578
-2144.288580 -2969.956031 -2.948175
-2146.288071 -2969.988455 -2.916771
-2148.287561 -2970.020879 -2.885367
-2150.287052 -2970.053304 -2.853963
-2152.286542 -2970.085728 -2.822559
-2154.286033 -2970.118152 -2.791156
-2156.285523 -2970.150576 -2.759752
-2158.285014 -2970.183000 -2.728348
-2160.284504 -2970.215424 -2.696944
-2162.283995 -2970.247849 -2.665541
-2164.283486 -2970.280273 -2.634137
-2166.282976 -2970.312697 -2.602733
-2168.282467 -2970.345121 -2.571329
-2170.281957 -2970.377545 -2.539925
-2172.281448 -2970.409969 -2.508522
-2174.280938 -2970.442394 -2.477118
-2176.280429 -2970.474818 -2.445714
-2178.279919 -2970.507242 -2.414310
-2180.279410 -2970.539666 -2.382907
-2182.278900 -2970.572090 -2.351503
-2184.278391 -2970.604514 -2.320099
-2186.277882 -2970.636939 -2.288695
-2188.277372 -2970.669363 -2.257292
-2190.276863 -2970.701787 -2.225888
-2192.276353 -2970.734211 -2.194484
-2194.275844 -2970.766635 -2.163080
-2196.275334 -2970.799059 -2.131676
-2198.274825 -2970.831484 -2.100273
-2200.274315 -2970.863908 -2.068869
-2202.273806 -2970.896332 -2.037465
-2204.273297 -2970.928756 -2.006061
-2206.272787 -2970.961180 -1.974658
-2208.272278 -2970.993605 -1.943254
-2210.271768 -2971.026029 -1.911850
-2212.271259 -2971.058453 -1.880446
-2214.270749 -2971.090877 -1.849042
-2216.270240 -2971.123301 -1.817639
-2218.269730 -2971.155725 -1.786235
-2220.269221 -2971.188150 -1.754831
-2222.268712 -2971.220574 -1.723427
-2224.268202 -2971.252998 -1.692024
-2226.267693 -2971.285422 -1.660620
-2228.267183 -2971.317846 -1.629216
-2230.266674 -2971.350270 -1.597812
-2232.266164 -2971.382695 -1.566408
-2234.265655 -2971.415119 -1.535005
-2236.265145 -2971.447543 -1.503601
-2238.264636 -2971.479967 -1.472197
-2240.264127 -2971.512391 -1.440793
-2242.263617 -2971.544815 -1.409390
-2244.263108 -2971.577240 -1.377986
-2246.262598 -2971.609664 -1.346582
-2248.262089 -2971.642088 -1.315178
-2250.261579 -2971.674512 -1.283774
-2252.261070 -2971.706936 -1.252371
-2254.260560 -2971.739360 -1.220967
-2256.260051 -2971.771785 -1.189563
-2258.259542 -2971.804209 -1.158159
-2260.259032 -2971.836633 -1.126756
-2262.258523 -2971.869057 -1.095352
-2264.258013 -2971.901481 -1.063948
-2266.257504 -2971.933905 -1.032544
-2268.256994 -2971.966330 -1.001141
-2270.256485 -2971.998754 -0.969737
-2272.255975 -2972.031178 -0.938333
-2274.255466 -2972.063602 -0.906929
-2276.254957 -2972.096026 -0.875525
-2278.254447 -2972.128450 -0.844122
-2280.253938 -2972.160875 -0.812718
-2282.253428 -2972.193299 -0.781314
-2284.252919 -2972.225723 -0.749910
-2286.252409 -2972.258147 -0.718507
-2288.251900 -2972.290571 -0.687103
-2290.251390 -2972.322996 -0.655699
-2292.250881 -2972.355420 -0.624295
-2294.250372 -2972.387844 -0.592891
-2296.249862 -2972.420268 -0.561488
-2298.249353 -2972.452692 -0.530084
-2300.248843 -2972.485116 -0.498680
-2302.248334 -2972.517541 -0.467276
-2304.247824 -2972.549965 -0.435873
-2306.247315 -2972.582389 -0.404469
-2308.246805 -2972.614813 -0.373065
-2310.246296 -2972.647237 -0.341661
-2312.245787 -2972.679661 -0.310257
-2314.245277 -2972.712086 -0.278854
-2316.244768 -2972.744510 -0.247450
-2318.244258 -2972.776934 -0.216046
-2320.243749 -2972.809358 -0.184642
-2322.243239 -2972.841782 -0.153239
-2324.242730 -2972.874206 -0.121835
-2326.242220 -2972.906631 -0.090431
-2328.241711 -2972.939055 -0.059027
-2332.000000 -2973.000000 0.000000
-2332.000000 -2973.000000 0.000000
-2332.000000 -2975.000000 0.000000
-2332.000000 -2977.000000 0.000000
-2332.000000 -2979.000000 0.000000
-2332.000000 -2981.000000 0.000000
-2332.000000 -2983.000000 0.000000
-2332.000000 -2985.000000 0.000000
-2332.000000 -2987.000000 0.000000
-2332.000000 -2989.000000 0.000000
-2332.000000 -2991.000000 0.000000
-2332.000000 -2993.000000 0.000000
-2332.000000 -2995.000000 0.000000
-2332.000000 -2997.000000 0.000000
-2332.000000 -2999.000000 0.000000
-2332.000000 -3001.000000 0.000000
-2332.000000 -3003.000000 0.000000
-2332.000000 -3005.000000 0.000000
-2332.000000 -3007.000000 0.000000
-2332.000000 -3009.000000 0.000000
-2332.000000 -3011.000000 0.000000
-2332.000000 -3013.000000 0.000000
-2332.000000 -3015.000000 0.000000
-2332.000000 -3017.000000 0.000000
-2332.000000 -3019.000000 0.000000
-2332.000000 -3021.000000 0.000000
-2332.000000 -3023.000000 0.000000
-2332.000000 -3025.000000 0.000000
-2332.000000 -3027.000000 0.000000
-2332.000000 -3029.000000 0.000000
-2332.000000 -3031.000000 0.000000
-2332.000000 -3033.000000 0.000000
-2332.000000 -3035.250000 0.000000
-2332.000000 -3035.250000 0.000000
-2332.123317 -3037.246195 0.000000
-2332.246634 -3039.242389 0.000000
-2332.369951 -3041.238584 0.000000
-2332.493268 -3043.234778 0.000000
-2332.616585 -3045.230973 0.000000
-2332.739902 -3047.227168 0.000000
-2332.863219 -3049.223362 0.000000
-2332.986536 -3051.219557 0.000000
-2333.109853 -3053.215751 0.000000
-2333.233170 -3055.211946 0.000000
-2333.356487 -3057.208141 0.000000
-2333.479804 -3059.204335 0.000000
-2333.603122 -3061.200530 0.000000
-2333.726439 -3063.196724 0.000000
-2333.849756 -3065.192919 0.000000
-2333.973073 -3067.189114 0.000000
-2334.096390 -3069.185308 0.000000
-2334.219707 -3071.181503 0.000000
-2334.343024 -3073.177698 0.000000
-2334.466341 -3075.173892 0.000000
-2334.589658 -3077.170087 0.000000
-2334.712975 -3079.166281 0.000000
-2334.836292 -3081.162476 0.000000
-2334.959609 -3083.158671 0.000000
-2335.082926 -3085.154865 0.000000
-2335.206243 -3087.151060 0.000000
-2335.329560 -3089.147254 0.000000
-2335.452877 -3091.143449 0.000000
-2335.576194 -3093.139644 0.000000
-2335.699511 -3095.135838 0.000000
-2335.822828 -3097.132033 0.000000
-2335.946145 -3099.128227 0.000000
-2336.069462 -3101.124422 0.000000
-2336.192779 -3103.120617 0.000000
-2336.316096 -3105.116811 0.000000
-2336.439413 -3107.113006 0.000000
-2336.562731 -3109.109200 0.000000
-2336.686048 -3111.105395 0.000000
-2336.809365 -3113.101590 0.000000
-2336.932682 -3115.097784 0.000000
-2337.055999 -3117.093979 0.000000
-2337.179316 -3119.090173 0.000000
-2337.302633 -3121.086368 0.000000
-2337.425950 -3123.082563 0.000000
-2337.549267 -3125.078757 0.000000
-2337.672584 -3127.074952 0.000000
-2337.795901 -3129.071147 0.000000
-2337.919218 -3131.067341 0.000000
-2338.042535 -3133.063536 0.000000
-2338.165852 -3135.059730 0.000000
-2338.289169 -3137.055925 0.000000
-2338.412486 -3139.052120 0.000000
-2338.535803 -3141.048314 0.000000
-2338.659120 -3143.044509 0.000000
-2338.782437 -3145.040703 0.000000
-2338.905754 -3147.036898 0.000000
-2339.029071 -3149.033093 0.000000
-2339.152388 -3151.029287 0.000000
-2339.275705 -3153.025482 0.000000
-2339.399022 -3155.021676 0.000000
-2339.522340 -3157.017871 0.000000
-2339.645657 -3159.014066 0.000000
-2339.768974 -3161.010260 0.000000
-2339.892291 -3163.006455 0.000000
-2340.015608 -3165.002649 0.000000
-2340.138925 -3166.998844 0.000000
-2340.262242 -3168.995039 0.000000
-2340.385559 -3170.991233 0.000000
-2340.508876 -3172.987428 0.000000
-2340.632193 -3174.983622 0.000000
-2340.755510 -3176.979817 0.000000
-2340.878827 -3178.976012 0.000000
-2341.002144 -3180.972206 0.000000
-2341.125461 -3182.968401 0.000000
-2341.248778 -3184.964595 0.000000
-2341.372095 -3186.960790 0.000000
-2341.495412 -3188.956985 0.000000
-2341.618729 -3190.953179 0.000000
-2341.742046 -3192.949374 0.000000
-2341.865363 -3194.945569 0.000000
-2341.988680 -3196.941763 0.000000
-2342.111997 -3198.937958 0.000000
-2342.235314 -3200.934152 0.000000
-2342.358631 -3202.930347 0.000000
-2342.481949 -3204.926542 0.000000
-2342.605266 -3206.922736 0.000000
-2342.728583 -3208.918931 0.000000
-2342.851900 -3210.915125 0.000000
-2342.975217 -3212.911320 0.000000
-2343.098534 -3214.907515 0.000000
-2343.221851 -3216.903709 0.000000
-2343.345168 -3218.899904 0.000000
-2343.468485 -3220.896098 0.000000
-2343.591802 -3222.892293 0.000000
-2343.715119 -3224.888488 0.000000
-2343.838436 -3226.884682 0.000000
-2343.961753 -3228.880877 0.000000
-2344.085070 -3230.877071 0.000000
-2344.208387 -3232.873266 0.000000
-2344.331704 -3234.869461 0.000000
-2344.455021 -3236.865655 0.000000
-2344.578338 -3238.861850 0.000000
-2344.701655 -3240.858044 0.000000
-2344.824972 -3242.854239 0.000000
-2344.948289 -3244.850434 0.000000
-2345.071606 -3246.846628 0.000000
-2345.194923 -3248.842823 0.000000
-2345.318240 -3250.839018 0.000000
-2345.441558 -3252.835212 0.000000
-2345.564875 -3254.831407 0.000000
-2345.688192 -3256.827601 0.000000
-2345.811509 -3258.823796 0.000000
-2345.934826 -3260.819991 0.000000
-2346.058143 -3262.816185 0.000000
-2346.181460 -3264.812380 0.000000
-2346.304777 -3266.808574 0.000000
-2346.428094 -3268.804769 0.000000
-2346.551411 -3270.800964 0.000000
-2346.674728 -3272.797158 0.000000
-2346.798045 -3274.793353 0.000000
-2346.921362 -3276.789547 0.000000
-2347.044679 -3278.785742 0.000000
-2347.167996 -3280.781937 0.000000
-2347.291313 -3282.778131 0.000000
-2347.414630 -3284.774326 0.000000
-2347.537947 -3286.770520 0.000000
-2347.661264 -3288.766715 0.000000
-2347.784581 -3290.762910 0.000000
-2348.000000 -3294.250000 0.000000
-2348.000000 -3294.250000 0.000000
-2348.000000 -3296.090497 0.782670
-2348.000000 -3297.930993 1.565339
-2348.000000 -3299.771490 2.348009
-2348.000000 -3301.611987 3.130679
-2348.000000 -3303.452484 3.913348
-2348.000000 -3305.292980 4.696018
-2348.000000 -3307.133477 5.478688
-2348.000000 -3308.973974 6.261358
-2348.000000 -3310.814470 7.044027
-2348.000000 -3312.654967 7.826697
-2348.000000 -3314.495464 8.609367
-2348.000000 -3316.335961 9.392036
-2348.000000 -3318.176457 10.174706
-2348.000000 -3320.016954 10.957376
-2348.000000 -3321.857451 11.740045
-2348.000000 -3323.697947 12.522715
-2348.000000 -3325.538444 13.305385
-2348.000000 -3327.378941 14.088055
-2348.000000 -3329.219438 14.870724
-2348.000000 -3331.059934 15.653394
-2348.000000 -3332.900431 16.436064
-2348.000000 -3334.740928 17.218733
-2348.000000 -3336.581424 18.001403
-2348.000000 -3338.421921 18.784073
-2348.000000 -3340.262418 19.566742
-2348.000000 -3342.102914 20.349412
-2348.000000 -3343.943411 21.132082
-2348.000000 -3345.783908 21.914752
-2348.000000 -3347.624405 22.697421
-2348.000000 -3349.464901 23.480091
-2348.000000 -3351.305398 24.262761
-2348.000000 -3353.145895 25.045430
-2348.000000 -3354.986391 25.828100
-2348.000000 -3356.826888 26.610770
-2348.000000 -3358.667385 27.393439
-2348.000000 -3360.507882 28.176109
-2348.000000 -3362.348378 28.958779
-2348.000000 -3364.188875 29.741449
-2348.000000 -3366.029372 30.524118
-2348.000000 -3367.869868 31.306788
-2348.000000 -3369.710365 32.089458
-2348.000000 -3371.550862 32.872127
-2348.000000 -3373.391359 33.654797
-2348.000000 -3375.231855 34.437467
-2348.000000 -3377.072352 35.220136
-2348.000000 -3378.912849 36.002806
-2348.000000 -3380.753345 36.785476
-2348.000000 -3382.593842 37.568145
-2348.000000 -3384.434339 38.350815
-2348.000000 -3386.274836 39.133485
-2348.000000 -3388.115332 39.916155
-2348.000000 -3389.955829 40.698824
-2348.000000 -3391.796326 41.481494
-2348.000000 -3393.636822 42.264164
-2348.000000 -3395.477319 43.046833
-2348.000000 -3397.317816 43.829503
-2348.000000 -3399.158313 44.612173
-2348.000000 -3400.998809 45.394842
-2348.000000 -3402.839306 46.177512
-2348.000000 -3404.679803 46.960182
-2348.000000 -3406.520299 47.742852
-2348.000000 -3408.360796 48.525521
-2348.000000 -3410.201293 49.308191
-2348.000000 -3412.041790 50.090861
-2348.000000 -3413.882286 50.873530
-2348.000000 -3415.722783 51.656200
-2348.000000 -3417.563280 52.438870
-2348.000000 -3419.403776 53.221539
-2348.000000 -3421.244273 54.004209
-2348.000000 -3423.084770 54.786879
-2348.000000 -3424.925266 55.569549
-2348.000000 -3426.765763 56.352218
-2348.000000 -3428.606260 57.134888
-2348.000000 -3430.446757 57.917558
-2348.000000 -3432.287253 58.700227
-2348.000000 -3434.127750 59.482897
-2348.000000 -3435.968247 60.265567
-2348.000000 -3437.808743 61.048236
-2348.000000 -3439.649240 61.830906
-2348.000000 -3441.489737 62.613576
-2348.000000 -3443.330234 63.396246
-2348.000000 -3445.170730 64.178915
-2348.000000 -3447.011227 64.961585
-2348.000000 -3448.851724 65.744255
-2348.000000 -3450.692220 66.526924
-2348.000000 -3452.532717 67.309594
-2348.000000 -3454.373214 68.092264
-2348.000000 -3456.213711 68.874933
-2348.000000 -3458.054207 69.657603
-2348.000000 -3459.894704 70.440273
-2348.000000 -3461.735201 71.222943
-2348.000000 -3463.575697 72.005612
-2348.000000 -3465.416194 72.788282
-2348.000000 -3467.256691 73.570952
-2348.000000 -3469.097188 74.353621
-2348.000000 -3470.937684 75.136291
-2348.000000 -3472.778181 75.918961
-2348.000000 -3474.618678 76.701630
-2348.000000 -3476.459174 77.484300
-2348.000000 -3478.299671 78.266970
-2348.000000 -3480.140168 79.049639
-2348.000000 -3481.980665 79.832309
-2348.000000 -3483.821161 80.614979
-2348.000000 -3485.661658 81.397649
-2348.000000 -3487.502155 82.180318
-2348.000000 -3489.342651 82.962988
-2348.000000 -3491.183148 83.745658
-2348.000000 -3493.023645 84.528327
-2348.000000 -3494.864142 85.310997
-2348.000000 -3496.704638 86.093667
-2348.000000 -3498.545135 86.876336
-2348.000000 -3500.385632 87.659006
-2348.000000 -3502.226128 88.441676
-2348.000000 -3504.066625 89.224346
-2348.000000 -3505.907122 90.007015
-2348.000000 -3507.747619 90.789685
-2348.000000 -3509.588115 91.572355
-2348.000000 -3511.428612 92.355024
-2348.000000 -3513.269109 93.137694
-2348.000000 -3515.109605 93.920364
-2348.000000 -3516.950102 94.703033
-2348.000000 -3520.000000 96.000000
-2348.000000 -3520.000000 96.000000
-2348.000000 -3522.000000 96.000000
-2348.000000 -3524.000000 96.000000
-2348.000000 -3526.000000 96.000000
-2348.000000 -3528.000000 96.000000
-2348.000000 -3530.000000 96.000000
-2348.000000 -3532.000000 96.000000
-2348.000000 -3534.000000 96.000000
-2348.000000 -3536.000000 96.000000
-2348.000000 -3538.000000 96.000000
-2348.000000 -3540.000000 96.000000
-2348.000000 -3542.000000 96.000000
-2348.000000 -3544.000000 96.000000
-2348.000000 -3546.000000 96.000000
-2348.000000 -3548.000000 96.000000
-2348.000000 -3550.000000 96.000000
-2348.000000 -3552.000000 96.000000
-2348.000000 -3554.000000 96.000000
-2348.000000 -3556.000000 96.000000
-2348.000000 -3558.000000 96.000000
-2348.000000 -3560.000000 96.000000
-2348.000000 -3562.000000 96.000000
-2348.000000 -3564.000000 96.000000
-2348.000000 -3566.000000 96.000000
-2348.000000 -3568.000000 96.000000
-2348.000000 -3570.000000 96.000000
-2348.000000 -3572.000000 96.000000
-2348.000000 -3574.000000 96.000000
-2348.000000 -3576.000000 96.000000
-2348.000000 -3578.000000 96.000000
-2348.000000 -3580.000000 96.000000
-2348.000000 -3582.000000 96.000000
-2348.000000 -3584.000000 96.000000
-2348.000000 -3586.000000 96.000000
-2348.000000 -3588.000000 96.000000
-2348.000000 -3590.000000 96.000000
-2348.000000 -3592.000000 96.000000
-2348.000000 -3594.000000 96.000000
-2348.000000 -3596.000000 96.000000
-2348.000000 -3598.000000 96.000000
-2348.000000 -3600.000000 96.000000
-2348.000000 -3602.000000 96.000000
-2348.000000 -3604.000000 96.000000
-2348.000000 -3606.000000 96.000000
-2348.000000 -3608.000000 96.000000
-2348.000000 -3610.000000 96.000000
-2348.000000 -3612.000000 96.000000
-2348.000000 -3614.000000 96.000000
-2348.000000 -3616.000000 96.000000
-2348.000000 -3618.000000 96.000000
-2348.000000 -3620.000000 96.000000
-2348.000000 -3622.000000 96.000000
-2348.000000 -3624.000000 96.000000
-2348.000000 -3626.000000 96.000000
-2348.000000 -3628.000000 96.000000
-2348.000000 -3630.000000 96.000000
-2348.000000 -3632.000000 96.000000
-2348.000000 -3634.000000 96.000000
-2348.000000 -3636.000000 96.000000
-2348.000000 -3638.000000 96.000000
-2348.000000 -3640.000000 96.000000
-2348.000000 -3642.000000 96.000000
-2348.000000 -3644.000000 96.000000
-2348.000000 -3646.000000 96.000000
-2348.000000 -3648.000000 96.000000
-2348.000000 -3650.000000 96.000000
-2348.000000 -3652.000000 96.000000
-2348.000000 -3654.000000 96.000000
-2348.000000 -3656.000000 96.000000
-2348.000000 -3658.000000 96.000000
-2348.000000 -3660.000000 96.000000
-2348.000000 -3662.000000 96.000000
-2348.000000 -3664.000000 96.000000
-2348.000000 -3666.000000 96.000000
-2348.000000 -3668.000000 96.000000
-2348.000000 -3670.000000 96.000000
-2348.000000 -3672.000000 96.000000
-2348.000000 -3674.000000 96.000000
-2348.000000 -3676.000000 96.000000
-2348.000000 -3678.000000 96.000000
-2348.000000 -3680.000000 96.000000
-2348.000000 -3682.000000 96.000000
-2348.000000 -3684.000000 96.000000
-2348.000000 -3686.000000 96.000000
-2348.000000 -3688.000000 96.000000
-2348.000000 -3690.000000 96.000000
-2348.000000 -3692.000000 96.000000
-2348.000000 -3694.000000 96.000000
-2348.000000 -3696.000000 96.000000
-2348.000000 -3698.000000 96.000000
-2348.000000 -3700.000000 96.000000
-2348.000000 -3702.000000 96.000000
-2348.000000 -3704.000000 96.000000
-2348.000000 -3706.000000 96.000000
-2348.000000 -3708.000000 96.000000
-2348.000000 -3710.000000 96.000000
-2348.000000 -3712.000000 96.000000
-2348.000000 -3714.000000 96.000000
-2348.000000 -3716.000000 96.000000
-2348.000000 -3718.000000 96.000000
-2348.000000 -3720.000000 96.000000
-2348.000000 -3722.000000 96.000000
-2348.000000 -3724.000000 96.000000
-2348.000000 -3726.000000 96.000000
-2348.000000 -3728.000000 96.000000
-2348.000000 -3730.000000 96.000000
-2348.000000 -3732.000000 96.000000
-2348.000000 -3734.000000 96.000000
-2348.000000 -3736.000000 96.000000
-2348.000000 -3738.000000 96.000000
-2348.000000 -3740.000000 96.000000
-2348.000000 -3742.000000 96.000000
-2348.000000 -3744.000000 96.000000
-2348.000000 -3746.000000 96.000000
-2348.000000 -3748.000000 96.000000
-2348.000000 -3750.000000 96.000000
-2348.000000 -3752.000000 96.000000
-2348.000000 -3754.000000 96.000000
-2348.000000 -3756.000000 96.000000
-2348.000000 -3758.000000 96.000000
-2348.000000 -3760.000000 96.000000
-2348.000000 -3762.000000 96.000000
-2348.000000 -3764.000000 96.000000
-2348.000000 -3766.000000 96.000000
-2348.000000 -3768.000000 96.000000
-2348.000000 -3770.000000 96.000000
-2348.000000 -3772.000000 96.000000
-2348.000000 -3774.000000 96.000000
-2348.000000 -3776.000000 96.000000
-2348.000000 -3778.000000 96.000000
-2348.000000 -3780.000000 96.000000
-2348.000000 -3782.000000 96.000000
-2348.000000 -3784.000000 96.000000
-2348.000000 -3786.000000 96.000000
-2348.000000 -3788.000000 96.000000
-2348.000000 -3790.000000 96.000000
-2348.000000 -3792.000000 96.000000
-2348.000000 -3794.000000 96.000000
-2348.000000 -3796.000000 96.000000
-2348.000000 -3798.000000 96.000000
-2348.000000 -3800.000000 96.000000
-2348.000000 -3802.000000 96.000000
-2348.000000 -3804.000000 96.000000
-2348.000000 -3806.000000 96.000000
-2348.000000 -3808.000000 96.000000
-2348.000000 -3810.000000 96.000000
-2348.000000 -3812.000000 96.000000
-2348.000000 -3814.000000 96.000000
-2348.000000 -3816.000000 96.000000
-2348.000000 -3818.000000 96.000000
-2348.000000 -3820.000000 96.000000
-2348.000000 -3822.000000 96.000000
-2348.000000 -3824.000000 96.000000
-2348.000000 -3826.000000 96.000000
-2348.000000 -3828.000000 96.000000
-2348.000000 -3830.000000 96.000000
-2348.000000 -3832.000000 96.000000
-2348.000000 -3834.000000 96.000000
-2348.000000 -3836.000000 96.000000
-2348.000000 -3838.000000 96.000000
-2348.000000 -3840.000000 96.000000
-2348.000000 -3842.000000 96.000000
-2348.000000 -3844.000000 96.000000
-2348.000000 -3846.000000 96.000000
-2348.000000 -3848.000000 96.000000
-2348.000000 -3850.000000 96.000000
-2348.000000 -3852.000000 96.000000
-2348.000000 -3854.000000 96.000000
-2348.000000 -3856.000000 96.000000
-2348.000000 -3858.000000 96.000000
-2348.000000 -3860.000000 96.000000
-2348.000000 -3862.000000 96.000000
-2348.000000 -3864.000000 96.000000
-2348.000000 -3866.000000 96.000000
-2348.000000 -3868.000000 96.000000
-2348.000000 -3870.000000 96.000000
-2348.000000 -3872.000000 96.000000
-2348.000000 -3874.000000 96.000000
-2348.000000 -3876.000000 96.000000
-2348.000000 -3878.000000 96.000000
-2348.000000 -3880.000000 96.000000
-2348.000000 -3882.000000 96.000000
-2348.000000 -3884.000000 96.000000
-2348.000000 -3886.000000 96.000000
-2348.000000 -3888.000000 96.000000
-2348.000000 -3890.000000 96.000000
-2348.000000 -3892.000000 96.000000
-2348.000000 -3894.000000 96.000000
-2348.000000 -3896.000000 96.000000
-2348.000000 -3898.000000 96.000000
-2348.000000 -3900.000000 96.000000
-2348.000000 -3902.000000 96.000000
-2348.000000 -3904.000000 96.000000
-2348.000000 -3906.000000 96.000000
-2348.000000 -3908.000000 96.000000
-2348.000000 -3910.000000 96.000000
-2348.000000 -3912.000000 96.000000
-2348.000000 -3914.000000 96.000000
-2348.000000 -3916.000000 96.000000
-2348.000000 -3918.000000 96.000000
-2348.000000 -3920.000000 96.000000
-2348.000000 -3922.000000 96.000000
-2348.000000 -3924.000000 96.000000
-2348.000000 -3926.000000 96.000000
-2348.000000 -3928.000000 96.000000
-2348.000000 -3930.000000 96.000000
-2348.000000 -3932.000000 96.000000
-2348.000000 -3934.000000 96.000000
-2348.000000 -3936.000000 96.000000
-2348.000000 -3938.000000 96.000000
-2348.000000 -3940.000000 96.000000
-2348.000000 -3942.000000 96.000000
-2348.000000 -3944.000000 96.000000
-2348.000000 -3946.000000 96.000000
-2348.000000 -3948.000000 96.000000
-2348.000000 -3950.000000 96.000000
-2348.000000 -3952.000000 96.000000
-2348.000000 -3954.000000 96.000000
-2348.000000 -3956.000000 96.000000
-2348.000000 -3958.000000 96.000000
-2348.000000 -3960.000000 96.000000
-2348.000000 -3962.000000 96.000000
-2348.000000 -3964.000000 96.000000
-2348.000000 -3966.000000 96.000000
-2348.000000 -3968.000000 96.000000
-2348.000000 -3970.000000 96.000000
-2348.000000 -3972.000000 96.000000
-2348.000000 -3974.000000 96.000000
-2348.000000 -3976.000000 96.000000
-2348.000000 -3978.000000 96.000000
-2348.000000 -3980.000000 96.000000
-2348.000000 -3982.000000 96.000000
-2348.000000 -3984.000000 96.000000
-2348.000000 -3986.000000 96.000000
-2348.000000 -3988.000000 96.000000
-2348.000000 -3990.000000 96.000000
-2348.000000 -3992.000000 96.000000
-2348.000000 -3994.000000 96.000000
-2348.000000 -3996.000000 96.000000
-2348.000000 -3998.000000 96.000000
-2348.000000 -4000.000000 96.000000
-2348.000000 -4002.000000 96.000000
-2348.000000 -4004.000000 96.000000
-2348.000000 -4006.000000 96.000000
-2348.000000 -4008.000000 96.000000
-2348.000000 -4010.000000 96.000000
-2348.000000 -4012.000000 96.000000
-2348.000000 -4014.000000 96.000000
-2348.000000 -4016.000000 96.000000
-2348.000000 -4018.000000 96.000000
-2348.000000 -4020.000000 96.000000
-2348.000000 -4022.000000 96.000000
-2348.000000 -4024.000000 96.000000
-2348.000000 -4026.000000 96.000000
-2348.000000 -4028.000000 96.000000
-2348.000000 -4032.000000 96.000000
-2348.000000 -4032.000000 96.000000
-2346.070472 -4032.526235 96.000000
-2344.140945 -4033.052470 96.000000
-2342.211417 -4033.578704 96.000000
-2340.281889 -4034.104939 96.000000
-2338.352362 -4034.631174 96.000000
-2336.422834 -4035.157409 96.000000
-2334.493307 -4035.683644 96.000000
-2332.563779 -4036.209878 96.000000
-2330.634251 -4036.736113 96.000000
-2328.704724 -4037.262348 96.000000
-2326.775196 -4037.788583 96.000000
-2324.845668 -4038.314818 96.000000
-2322.916141 -4038.841053 96.000000
-2320.986613 -4039.367287 96.000000
-2319.057085 -4039.893522 96.000000
-2317.127558 -4040.419757 96.000000
-2315.198030 -4040.945992 96.000000
-2313.268502 -4041.472227 96.000000
-2311.338975 -4041.998461 96.000000
-2309.409447 -4042.524696 96.000000
-2307.479920 -4043.050931 96.000000
-2304.000000 -4044.000000 96.000000
-2304.000000 -4044.000000 96.000000
-2302.000008 -4043.994335 96.000000
-2300.000016 -4043.988669 96.000000
-2298.000024 -4043.983004 96.000000
-2296.000032 -4043.977339 96.000000
-2294.000040 -4043.971673 96.000000
-2292.000048 -4043.966008 96.000000
-2290.000056 -4043.960343 96.000000
-2288.000064 -4043.954677 96.000000
-2286.000072 -4043.949012 96.000000
-2284.000080 -4043.943347 96.000000
-2282.000088 -4043.937681 96.000000
-2280.000096 -4043.932016 96.000000
-2278.000104 -4043.926351 96.000000
-2276.000112 -4043.920685 96.000000
-2274.000120 -4043.915020 96.000000
-2272.000128 -4043.909355 96.000000
-2270.000136 -4043.903689 96.000000
-2268.000144 -4043.898024 96.000000
-2266.000152 -4043.892359 96.000000
-2264.000160 -4043.886693 96.000000
-2262.000169 -4043.881028 96.000000
-2260.000177 -4043.875363 96.000000
-2258.000185 -4043.869697 96.000000
-2256.000193 -4043.864032 96.000000
-2254.000201 -4043.858367 96.000000
-2252.000209 -4043.852701 96.000000
-2250.000217 -4043.847036 96.000000
-2248.000225 -4043.841371 96.000000
-2246.000233 -4043.835705 96.000000
-2244.000241 -4043.830040 96.000000
-2242.000249 -4043.824375 96.000000
-2240.000257 -4043.818709 96.000000
-2238.000265 -4043.813044 96.000000
-2236.000273 -4043.807379 96.000000
-2234.000281 -4043.801713 96.000000
-2232.000289 -4043.796048 96.000000
-2230.000297 -4043.790383 96.000000
-2228.000305 -4043.784717 96.000000
-2226.000313 -4043.779052 96.000000
-2224.000321 -4043.773387 96.000000
-2222.000329 -4043.767721 96.000000
-2220.000337 -4043.762056 96.000000
-2218.000345 -4043.756391 96.000000
-2216.000353 -4043.750725 96.000000
-2214.000361 -4043.745060 96.000000
-2212.000369 -4043.739395 96.000000
-2210.000377 -4043.733729 96.000000
-2208.000385 -4043.728064 96.000000
-2206.000393 -4043.722399 96.000000
-2204.000401 -4043.716733 96.000000
-2202.000409 -4043.711068 96.000000
-2200.000417 -4043.705403 96.000000
-2198.000425 -4043.699737 96.000000
-2196.000433 -4043.694072 96.000000
-2194.000441 -4043.688407 96.000000
-2192.000449 -4043.682741 96.000000
-2190.000457 -4043.677076 96.000000
-2188.000465 -4043.671411 96.000000
-2186.000473 -4043.665745 96.000000
-2184.000481 -4043.660080 96.000000
-2182.000489 -4043.654415 96.000000
-2180.000497 -4043.648749 96.000000
-2178.000506 -4043.643084 96.000000
-2176.000514 -4043.637419 96.000000
-2174.000522 -4043.631753 96.000000
-2172.000530 -4043.626088 96.000000
-2170.000538 -4043.620423 96.000000
-2168.000546 -4043.614757 96.000000
-2166.000554 -4043.609092 96.000000
-2164.000562 -4043.603427 96.000000
-2162.000570 -4043.597761 96.000000
-2160.000578 -4043.592096 96.000000
-2158.000586 -4043.586431 96.000000
-2156.000594 -4043.580765 96.000000
-2154.000602 -4043.575100 96.000000
-2152.000610 -4043.569435 96.000000
-2150.000618 -4043.563769 96.000000
-2148.000626 -4043.558104 96.000000
-2146.000634 -4043.552439 96.000000
-2144.000642 -4043.546773 96.000000
-2142.000650 -4043.541108 96.000000
-2140.000658 -4043.535443 96.000000
-2138.000666 -4043.529777 96.000000
-2136.000674 -4043.524112 96.000000
-2134.000682 -4043.518447 96.000000
-2132.000690 -4043.512781 96.000000
-2130.000698 -4043.507116 96.000000
-2128.000706 -4043.501451 96.000000
-2126.000714 -4043.495785 96.000000
-2124.000722 -4043.490120 96.000000
-2122.000730 -4043.484455 96.000000
-2120.000738 -4043.478789 96.000000
-2118.000746 -4043.473124 96.000000
-2116.000754 -4043.467459 96.000000
-2114.000762 -4043.461793 96.000000
-2112.000770 -4043.456128 96.000000
-2110.000778 -4043.450463 96.000000
-2108.000786 -4043.444797 96.000000
-2106.000794 -4043.439132 96.000000
-2104.000802 -4043.433467 96.000000
-2102.000810 -4043.427801 96.000000
-2100.000818 -4043.422136 96.000000
-2098.000826 -4043.416471 96.000000
-2096.000834 -4043.410805 96.000000
-2094.000843 -4043.405140 96.000000
-2092.000851 -4043.399475 96.000000
-2090.000859 -4043.393809 96.000000
-2088.000867 -4043.388144 96.000000
-2086.000875 -4043.382479 96.000000
-2084.000883 -4043.376813 96.000000
-2082.000891 -4043.371148 96.000000
-2080.000899 -4043.365483 96.000000
-2078.000907 -4043.359817 96.000000
-2076.000915 -4043.354152 96.000000
-2074.000923 -4043.348487 96.000000
-2072.000931 -4043.342821 96.000000
-2070.000939 -4043.337156 96.000000
-2068.000947 -4043.331491 96.000000
-2066.000955 -4043.325825 96.000000
-2064.000963 -4043.320160 96.000000
-2062.000971 -4043.314495 96.000000
-2060.000979 -4043.308829 96.000000
-2058.000987 -4043.303164 96.000000
-2056.000995 -4043.297499 96.000000
-2054.001003 -4043.291833 96.000000
-2052.001011 -4043.286168 96.000000
-2050.001019 -4043.280503 96.000000
-2048.001027 -4043.274837 96.000000
-2046.001035 -4043.269172 96.000000
-2044.001043 -4043.263507 96.000000
-2042.001051 -4043.257841 96.000000
-2040.001059 -4043.252176 96.000000
-2038.001067 -4043.246511 96.000000
-2036.001075 -4043.240845 96.000000
-2034.001083 -4043.235180 96.000000
-2032.001091 -4043.229515 96.000000
-2030.001099 -4043.223849 96.000000
-2028.001107 -4043.218184 96.000000
-2026.001115 -4043.212519 96.000000
-2024.001123 -4043.206853 96.000000
-2022.001131 -4043.201188 96.000000
-2020.001139 -4043.195523 96.000000
-2018.001147 -4043.189857 96.000000
-2016.001155 -4043.184192 96.000000
-2014.001163 -4043.178527 96.000000
-2012.001172 -4043.172861 96.000000
-2010.001180 -4043.167196 96.000000
-2008.001188 -4043.161531 96.000000
-2006.001196 -4043.155865 96.000000
-2004.001204 -4043.150200 96.000000
-2002.001212 -4043.144535 96.000000
-2000.001220 -4043.138869 96.000000
-1998.001228 -4043.133204 96.000000
-1996.001236 -4043.127539 96.000000
-1994.001244 -4043.121873 96.000000
-1992.001252 -4043.116208 96.000000
-1990.001260 -4043.110543 96.000000
-1988.001268 -4043.104877 96.000000
-1986.001276 -4043.099212 96.000000
-1984.001284 -4043.093547 96.000000
-1982.001292 -4043.087881 96.000000
-1980.001300 -4043.082216 96.000000
-1978.001308 -4043.076551 96.000000
-1976.001316 -4043.070885 96.000000
-1974.001324 -4043.065220 96.000000
-1972.001332 -4043.059555 96.000000
-1970.001340 -4043.053889 96.000000
-1968.001348 -4043.048224 96.000000
-1966.001356 -4043.042559 96.000000
-1964.001364 -4043.036893 96.000000
-1962.001372 -4043.031228 96.000000
-1960.001380 -4043.025563 96.000000
-1958.001388 -4043.019897 96.000000
-1956.001396 -4043.014232 96.000000
-1954.001404 -4043.008567 96.000000
-1952.001412 -4043.002901 96.000000
-1950.001420 -4042.997236 96.000000
-1948.001428 -4042.991571 96.000000
